ply
format ascii 1.0
comment VCGLIB generated
element vertex 1261
property float x
property float y
property float z
property uchar red
property uchar green
property uchar blue
property uchar alpha
element face 0
property list uchar int vertex_indices
end_header
-141.556 -204.711 -1254 31 12 18 255 
-139.378 -204.711 -1254 35 9 14 255 
-137.2 -204.711 -1254 40 8 13 255 
-135.022 -204.711 -1254 25 10 13 255 
-133.374 -205.528 -1259 10 8 11 255 
-131.188 -205.528 -1259 11 6 9 255 
-129.001 -205.528 -1259 13 5 10 255 
-126.815 -205.528 -1259 16 3 12 255 
-125.519 -206.997 -1268 19 5 13 255 
-123.317 -206.997 -1268 19 6 14 255 
-121.497 -207.65 -1272 20 5 14 255 
-119.757 -208.466 -1277 19 4 14 255 
-118 -209.282 -1282 19 6 11 255 
-115.773 -209.282 -1282 17 7 8 255 
-113.547 -209.282 -1282 15 8 8 255 
-111.755 -210.098 -1287 12 8 9 255 
-109.519 -210.098 -1287 9 10 8 255 
-107.284 -210.098 -1287 16 12 8 255 
-105.376 -210.751 -1291 24 11 12 255 
-103.134 -210.751 -1291 22 12 16 255 
-100.892 -210.751 -1291 20 13 12 255 
-98.6496 -210.751 -1291 19 14 9 255 
-96.781 -211.568 -1296 19 13 8 255 
-94.5302 -211.568 -1296 13 12 7 255 
-92.2795 -211.568 -1296 7 12 6 255 
-90.0288 -211.568 -1296 29 12 5 255 
-88.1167 -212.384 -1301 51 11 7 255 
-85.8573 -212.384 -1301 38 9 10 255 
-83.5979 -212.384 -1301 25 11 6 255 
-81.3385 -212.384 -1301 24 11 2 255 
-79.0791 -212.384 -1301 24 12 4 255 
-76.8197 -212.384 -1301 28 12 7 255 
-74.5603 -212.384 -1301 32 12 10 255 
-72.3009 -212.384 -1301 24 14 13 255 
-70.0415 -212.384 -1301 16 15 12 255 
-67.7821 -212.384 -1301 9 17 12 255 
-65.5227 -212.384 -1301 2 17 12 255 
-63.5064 -213.2 -1306 14 17 13 255 
-61.2383 -213.2 -1306 27 18 13 255 
-58.9703 -213.2 -1306 33 19 14 255 
-56.9193 -214.016 -1311 39 17 13 255 
-54.6425 -214.016 -1311 37 15 13 255 
-52.3657 -214.016 -1311 36 13 9 255 
-50.0889 -214.016 -1311 27 7 6 255 
-47.8122 -214.016 -1311 18 9 7 255 
-45.7091 -214.833 -1316 26 9 8 255 
-43.4236 -214.833 -1316 35 18 14 255 
-41.1382 -214.833 -1316 41 20 20 255 
-38.8527 -214.833 -1316 47 26 23 255 
-36.5673 -214.833 -1316 53 34 26 255 
-34.412 -215.649 -1321 60 32 23 255 
-32.2395 -216.465 -1326 65 30 20 255 
-30.0495 -217.281 -1331 70 36 23 255 
-27.8422 -218.098 -1336 74 38 26 255 
-25.6367 -219.077 -1342 79 40 27 255 
-23.4797 -220.709 -1352 82 39 28 255 
-21.1318 -220.709 -1352 86 45 29 255 
-297.119 -215.468 -1306 155 138 174 255 
-294.851 -215.468 -1306 136 119 147 255 
-292.583 -215.468 -1306 117 106 151 255 
-289.204 -214.643 -1301 119 103 156 255 
-286.944 -214.643 -1301 122 99 149 255 
-282.497 -212.993 -1291 118 97 143 255 
-279.386 -212.334 -1287 115 101 142 255 
-277.151 -212.334 -1287 109 99 141 255 
-272.78 -210.684 -1277 104 100 140 255 
-269.503 -209.859 -1272 106 99 140 255 
-267.294 -209.859 -1272 109 98 140 255 
-264.251 -209.199 -1268 109 99 140 255 
-261.016 -208.374 -1263 109 101 147 255 
-256.978 -206.889 -1254 110 105 155 255 
-253.784 -206.064 -1249 111 111 148 255 
-251.615 -206.064 -1249 108 101 142 255 
-248.647 -205.404 -1245 106 96 140 255 
-245.495 -204.579 -1240 101 99 138 255 
-243.342 -204.579 -1240 97 97 104 255 
-240.41 -203.919 -1236 82 54 71 255 
-238.264 -203.919 -1236 67 47 78 255 
-236.117 -203.919 -1236 64 55 85 255 
-233.213 -203.259 -1232 61 56 79 255 
-231.074 -203.259 -1232 58 50 74 255 
-228.934 -203.259 -1232 55 45 66 255 
-226.795 -203.259 -1232 51 39 58 255 
-224.655 -203.259 -1232 47 34 50 255 
-222.516 -203.259 -1232 46 31 43 255 
-220.376 -203.259 -1232 45 25 38 255 
-218.236 -203.259 -1232 48 27 33 255 
-216.097 -203.259 -1232 51 30 35 255 
-213.957 -203.259 -1232 51 28 38 255 
-211.818 -203.259 -1232 51 29 41 255 
-209.678 -203.259 -1232 48 31 44 255 
-207.539 -203.259 -1232 45 34 49 255 
-206.066 -203.919 -1236 45 37 55 255 
-203.919 -203.919 -1236 46 36 52 255 
-201.773 -203.919 -1236 44 39 49 255 
-199.626 -203.919 -1236 43 42 49 255 
-197.48 -203.919 -1236 42 40 49 255 
-195.333 -203.919 -1236 42 39 43 255 
-193.187 -203.919 -1236 40 33 38 255 
-191.04 -203.919 -1236 39 24 36 255 
-188.894 -203.919 -1236 37 24 34 255 
-186.747 -203.919 -1236 36 23 33 255 
-184.601 -203.919 -1236 35 18 32 255 
-182.454 -203.919 -1236 35 10 30 255 
-180.308 -203.919 -1236 33 10 29 255 
-178.161 -203.919 -1236 32 9 26 255 
-176.015 -203.919 -1236 30 10 23 255 
-173.868 -203.919 -1236 29 9 21 255 
-171.722 -203.919 -1236 32 11 19 255 
-169.575 -203.919 -1236 36 12 17 255 
-167.429 -203.919 -1236 32 9 15 255 
-165.817 -204.579 -1240 29 8 15 255 
-163.663 -204.579 -1240 25 8 15 255 
-161.51 -204.579 -1240 22 7 17 255 
-159.999 -205.404 -1245 28 7 20 255 
-157.837 -205.404 -1245 34 8 19 255 
-155.675 -205.404 -1245 37 11 19 255 
-153.513 -205.404 -1245 41 13 17 255 
-151.35 -205.404 -1245 35 11 16 255 
-149.668 -206.064 -1249 30 10 17 255 
-147.499 -206.064 -1249 27 12 18 255 
-145.329 -206.064 -1249 24 14 16 255 
-143.733 -206.889 -1254 24 14 14 255 
-141.556 -206.889 -1254 24 10 13 255 
-139.378 -206.889 -1254 27 8 13 255 
-137.2 -206.889 -1254 30 7 12 255 
-135.561 -207.714 -1259 21 8 12 255 
-133.374 -207.714 -1259 12 9 11 255 
-131.188 -207.714 -1259 12 7 10 255 
-129.001 -207.714 -1259 13 8 10 255 
-127.218 -208.374 -1263 15 7 10 255 
-125.519 -209.199 -1268 18 9 12 255 
-123.706 -209.859 -1272 20 8 14 255 
-121.975 -210.684 -1277 22 10 14 255 
-120.226 -211.509 -1282 20 8 14 255 
-118 -211.509 -1282 18 10 10 255 
-116.225 -212.334 -1287 19 10 6 255 
-113.99 -212.334 -1287 20 13 7 255 
-111.755 -212.334 -1287 17 11 8 255 
-109.519 -212.334 -1287 14 14 5 255 
-107.618 -212.993 -1291 19 12 3 255 
-105.376 -212.993 -1291 25 10 8 255 
-103.134 -212.993 -1291 22 11 14 255 
-100.892 -212.993 -1291 19 13 11 255 
-98.6496 -212.993 -1291 19 13 9 255 
-96.781 -213.818 -1296 19 12 8 255 
-94.5302 -213.818 -1296 17 13 8 255 
-92.2795 -213.818 -1296 15 14 7 255 
-90.3761 -214.643 -1301 28 13 6 255 
-88.1167 -214.643 -1301 42 14 8 255 
-85.5274 -213.818 -1296 33 11 11 255 
-83.5979 -214.643 -1301 25 11 7 255 
-81.3385 -214.643 -1301 25 12 4 255 
-79.0791 -214.643 -1301 25 15 5 255 
-76.8197 -214.643 -1301 25 12 6 255 
-74.5603 -214.643 -1301 25 9 11 255 
-72.3009 -214.643 -1301 21 12 16 255 
-70.3107 -215.468 -1306 17 14 14 255 
-68.0426 -215.468 -1306 12 13 13 255 
-65.7745 -215.468 -1306 7 12 13 255 
-63.5064 -215.468 -1306 16 14 13 255 
-61.2383 -215.468 -1306 25 17 12 255 
-58.9703 -215.468 -1306 30 17 11 255 
-56.9193 -216.293 -1311 36 16 10 255 
-54.6425 -216.293 -1311 37 13 10 255 
-52.3657 -216.293 -1311 38 10 6 255 
-50.28 -217.118 -1316 35 10 2 255 
-47.8122 -216.293 -1311 32 13 6 255 
-45.7091 -217.118 -1316 39 20 11 255 
-43.4236 -217.118 -1316 47 31 18 255 
-40.9819 -216.293 -1311 53 31 25 255 
-38.7051 -216.293 -1311 60 38 27 255 
-36.5673 -217.118 -1316 65 37 29 255 
-34.2818 -217.118 -1316 71 38 27 255 
-32.361 -219.593 -1331 74 38 26 255 
-30.2979 -221.408 -1342 78 40 29 255 
-28.0715 -222.233 -1347 81 41 33 255 
-25.9423 -224.047 -1358 85 43 32 255 
-294.851 -217.736 -1306 147 122 165 255 
-292.583 -217.736 -1306 106 110 161 255 
-289.204 -216.903 -1301 113 102 157 255 
-285.841 -216.069 -1296 121 101 149 255 
-282.497 -215.236 -1291 118 97 142 255 
-279.386 -214.569 -1287 116 101 142 255 
-277.151 -214.569 -1287 111 102 143 255 
-272.78 -212.901 -1277 107 100 142 255 
-269.503 -212.068 -1272 108 100 142 255 
-267.294 -212.068 -1272 109 98 140 255 
-264.251 -211.401 -1268 107 99 139 255 
-261.016 -210.567 -1263 105 100 140 255 
-256.978 -209.067 -1254 107 102 142 255 
-253.784 -208.233 -1249 109 101 139 255 
-251.615 -208.233 -1249 106 96 137 255 
-248.647 -207.566 -1245 104 97 136 255 
-245.495 -206.733 -1240 102 101 136 255 
-243.342 -206.733 -1240 100 83 104 255 
-240.41 -206.066 -1236 77 39 73 255 
-238.264 -206.066 -1236 55 46 77 255 
-236.117 -206.066 -1236 56 55 81 255 
-233.213 -205.399 -1232 58 52 76 255 
-231.074 -205.399 -1232 56 51 71 255 
-228.934 -205.399 -1232 54 46 63 255 
-226.795 -205.399 -1232 51 41 56 255 
-224.655 -205.399 -1232 49 35 50 255 
-222.516 -205.399 -1232 49 32 44 255 
-220.376 -205.399 -1232 49 26 39 255 
-218.236 -205.399 -1232 53 24 34 255 
-216.097 -205.399 -1232 58 24 35 255 
-213.957 -205.399 -1232 55 28 36 255 
-211.818 -205.399 -1232 53 26 39 255 
-209.678 -205.399 -1232 47 27 43 255 
-207.539 -205.399 -1232 42 30 46 255 
-205.399 -205.399 -1232 43 34 49 255 
-203.919 -206.066 -1236 44 34 46 255 
-201.773 -206.066 -1236 41 36 44 255 
-199.626 -206.066 -1236 38 34 42 255 
-197.48 -206.066 -1236 38 35 40 255 
-195.333 -206.066 -1236 39 32 34 255 
-193.187 -206.066 -1236 36 27 28 255 
-191.04 -206.066 -1236 34 26 27 255 
-188.894 -206.066 -1236 34 27 27 255 
-186.747 -206.066 -1236 34 22 26 255 
-184.601 -206.066 -1236 31 17 25 255 
-182.454 -206.066 -1236 29 13 25 255 
-180.308 -206.066 -1236 27 9 25 255 
-178.161 -206.066 -1236 25 11 23 255 
-176.015 -206.066 -1236 23 12 21 255 
-173.868 -206.066 -1236 21 12 18 255 
-171.722 -206.066 -1236 27 12 15 255 
-169.575 -206.066 -1236 34 11 14 255 
-167.97 -206.733 -1240 30 8 13 255 
-165.817 -206.733 -1240 26 10 14 255 
-163.663 -206.733 -1240 21 12 15 255 
-161.51 -206.733 -1240 17 9 16 255 
-159.357 -206.733 -1240 25 9 17 255 
-157.837 -207.566 -1245 34 9 16 255 
-155.675 -207.566 -1245 40 12 16 255 
-153.513 -207.566 -1245 47 11 14 255 
-151.35 -207.566 -1245 38 9 13 255 
-149.668 -208.233 -1249 30 10 13 255 
-147.499 -208.233 -1249 24 10 13 255 
-145.329 -208.233 -1249 18 11 10 255 
-143.733 -209.067 -1254 18 14 7 255 
-141.556 -209.067 -1254 18 10 8 255 
-139.378 -209.067 -1254 19 8 10 255 
-137.2 -209.067 -1254 20 7 10 255 
-135.561 -209.9 -1259 17 6 10 255 
-133.374 -209.9 -1259 15 9 11 255 
-131.188 -209.9 -1259 14 9 12 255 
-129.411 -210.567 -1263 14 9 11 255 
-127.721 -211.401 -1268 15 10 10 255 
-125.915 -212.068 -1272 17 11 11 255 
-124.193 -212.901 -1277 21 10 13 255 
-122.452 -213.735 -1282 25 10 13 255 
-120.226 -213.735 -1282 21 10 14 255 
-118.46 -214.569 -1287 18 11 12 255 
-116.225 -214.569 -1287 22 12 10 255 
-114.344 -215.236 -1291 26 12 12 255 
-112.102 -215.236 -1291 22 12 14 255 
-109.86 -215.236 -1291 19 13 10 255 
-107.618 -215.236 -1291 22 14 6 255 
-105.376 -215.236 -1291 26 13 13 255 
-103.134 -215.236 -1291 22 13 21 255 
-101.282 -216.069 -1296 18 13 15 255 
-98.6496 -215.236 -1291 18 14 9 255 
-96.781 -216.069 -1296 19 15 7 255 
-94.5302 -216.069 -1296 21 14 6 255 
-92.2795 -216.069 -1296 24 14 6 255 
-90.0288 -216.069 -1296 29 14 6 255 
-87.7781 -216.069 -1296 34 13 7 255 
-85.5274 -216.069 -1296 30 13 8 255 
-83.2766 -216.069 -1296 26 11 7 255 
-81.0259 -216.069 -1296 26 12 7 255 
-78.7752 -216.069 -1296 26 13 7 255 
-76.5245 -216.069 -1296 22 14 7 255 
-74.5603 -216.903 -1301 18 12 8 255 
-72.3009 -216.903 -1301 18 12 10 255 
-70.3107 -217.736 -1306 18 13 10 255 
-68.0426 -217.736 -1306 15 12 11 255 
-65.7745 -217.736 -1306 13 13 9 255 
-63.5064 -217.736 -1306 18 14 8 255 
-61.2383 -217.736 -1306 23 15 8 255 
-58.9703 -217.736 -1306 28 19 8 255 
-56.9193 -218.57 -1311 34 14 9 255 
-54.6425 -218.57 -1311 37 12 10 255 
-52.3657 -218.57 -1311 40 13 10 255 
-50.28 -219.404 -1316 43 12 11 255 
-47.8122 -218.57 -1311 46 21 12 255 
-45.5354 -218.57 -1311 52 28 14 255 
-43.2586 -218.57 -1311 59 33 20 255 
-40.9819 -218.57 -1311 66 36 26 255 
-38.7051 -218.57 -1311 73 40 32 255 
-36.4283 -218.57 -1311 77 40 39 255 
-34.0213 -217.736 -1306 82 43 33 255 
-33.5281 -229.907 -1379 84 44 28 255 
-31.0203 -229.073 -1374 86 43 31 255 
-291.463 -219.162 -1301 133 112 171 255 
-288.092 -218.32 -1296 127 103 159 255 
-285.841 -218.32 -1296 121 109 150 255 
-282.497 -217.478 -1291 118 103 142 255 
-279.386 -216.804 -1287 116 105 143 255 
-276.074 -215.961 -1282 113 102 145 255 
-272.78 -215.119 -1277 110 101 145 255 
-269.503 -214.277 -1272 110 101 145 255 
-267.294 -214.277 -1272 110 99 142 255 
-264.251 -213.603 -1268 109 100 139 255 
-261.016 -212.761 -1263 109 102 134 255 
-258.003 -212.087 -1259 110 100 130 255 
-254.8 -211.245 -1254 111 98 131 255 
-251.615 -210.402 -1249 108 97 133 255 
-248.647 -209.729 -1245 105 97 133 255 
-245.495 -208.886 -1240 101 96 134 255 
-243.342 -208.886 -1240 98 96 105 255 
-240.41 -208.212 -1236 73 56 76 255 
-238.264 -208.212 -1236 48 45 76 255 
-236.117 -208.212 -1236 51 48 77 255 
-233.213 -207.539 -1232 54 49 72 255 
-231.074 -207.539 -1232 53 48 68 255 
-228.934 -207.539 -1232 53 47 61 255 
-226.795 -207.539 -1232 49 40 54 255 
-224.655 -207.539 -1232 45 34 49 255 
-222.516 -207.539 -1232 44 29 45 255 
-220.376 -207.539 -1232 43 23 40 255 
-218.236 -207.539 -1232 46 22 36 255 
-216.097 -207.539 -1232 49 17 35 255 
-213.957 -207.539 -1232 47 21 34 255 
-211.818 -207.539 -1232 46 24 38 255 
-209.678 -207.539 -1232 43 26 42 255 
-207.539 -207.539 -1232 40 28 43 255 
-205.399 -207.539 -1232 40 29 44 255 
-203.259 -207.539 -1232 40 33 42 255 
-201.12 -207.539 -1232 39 30 40 255 
-198.98 -207.539 -1232 39 26 35 255 
-197.48 -208.212 -1236 37 28 31 255 
-195.333 -208.212 -1236 36 29 25 255 
-193.187 -208.212 -1236 34 24 19 255 
-191.04 -208.212 -1236 32 26 20 255 
-188.894 -208.212 -1236 31 24 21 255 
-186.747 -208.212 -1236 30 24 20 255 
-184.601 -208.212 -1236 28 19 19 255 
-182.454 -208.212 -1236 27 18 20 255 
-180.308 -208.212 -1236 25 15 21 255 
-178.161 -208.212 -1236 23 16 20 255 
-176.015 -208.212 -1236 20 14 19 255 
-173.868 -208.212 -1236 17 17 15 255 
-172.277 -208.886 -1240 27 12 12 255 
-170.124 -208.886 -1240 37 14 12 255 
-167.97 -208.886 -1240 30 12 12 255 
-165.817 -208.886 -1240 24 14 14 255 
-163.663 -208.886 -1240 22 14 16 255 
-162.161 -209.729 -1245 20 12 15 255 
-159.999 -209.729 -1245 26 10 14 255 
-157.837 -209.729 -1245 32 10 13 255 
-156.175 -210.402 -1249 34 10 13 255 
-153.513 -209.729 -1245 37 12 12 255 
-151.837 -210.402 -1249 32 10 11 255 
-149.668 -210.402 -1249 27 12 10 255 
-148.089 -211.245 -1254 20 9 9 255 
-145.911 -211.245 -1254 13 9 5 255 
-143.733 -211.245 -1254 14 11 1 255 
-141.556 -211.245 -1254 15 11 4 255 
-139.378 -211.245 -1254 17 8 7 255 
-137.747 -212.087 -1259 20 8 8 255 
-135.561 -212.087 -1259 18 9 9 255 
-133.374 -212.087 -1259 16 14 11 255 
-131.188 -212.087 -1259 16 11 14 255 
-129.924 -213.603 -1268 16 12 12 255 
-128.124 -214.277 -1272 17 13 11 255 
-126.41 -215.119 -1277 19 17 11 255 
-124.679 -215.961 -1282 20 12 12 255 
-122.93 -216.804 -1287 22 10 13 255 
-120.695 -216.804 -1287 19 12 14 255 
-118.46 -216.804 -1287 16 14 14 255 
-116.225 -216.804 -1287 18 13 14 255 
-114.344 -217.478 -1291 21 12 17 255 
-112.102 -217.478 -1291 17 13 21 255 
-109.86 -217.478 -1291 14 15 15 255 
-107.618 -217.478 -1291 18 15 10 255 
-105.376 -217.478 -1291 22 16 19 255 
-103.134 -217.478 -1291 17 15 28 255 
-100.892 -217.478 -1291 13 16 18 255 
-98.6496 -217.478 -1291 16 17 9 255 
-96.4076 -217.478 -1291 19 21 7 255 
-94.1655 -217.478 -1291 24 17 5 255 
-92.2795 -218.32 -1296 30 15 6 255 
-90.0288 -218.32 -1296 32 14 7 255 
-87.7781 -218.32 -1296 34 13 6 255 
-85.5274 -218.32 -1296 29 13 6 255 
-83.2766 -218.32 -1296 24 12 8 255 
-81.0259 -218.32 -1296 27 12 11 255 
-78.7752 -218.32 -1296 31 12 10 255 
-76.5245 -218.32 -1296 24 13 9 255 
-74.5603 -219.162 -1301 18 14 6 255 
-72.3009 -219.162 -1301 18 15 4 255 
-70.3107 -220.004 -1306 19 14 6 255 
-68.0426 -220.004 -1306 18 14 9 255 
-65.7745 -220.004 -1306 17 15 6 255 
-63.5064 -220.004 -1306 21 14 3 255 
-61.2383 -220.004 -1306 26 14 4 255 
-58.9703 -220.004 -1306 31 14 5 255 
-56.9193 -220.847 -1311 37 12 7 255 
-54.6425 -220.847 -1311 42 14 10 255 
-52.3657 -220.847 -1311 47 19 15 255 
-50.28 -221.689 -1316 50 23 20 255 
-47.8122 -220.847 -1311 54 32 19 255 
-45.5354 -220.847 -1311 61 34 18 255 
-43.2586 -220.847 -1311 68 39 22 255 
-40.9819 -220.847 -1311 72 42 27 255 
-38.5575 -220.004 -1306 76 49 38 255 
-36.2894 -220.004 -1306 80 48 50 255 
-291.463 -221.422 -1301 161 133 179 255 
-288.092 -220.571 -1296 141 93 159 255 
-285.841 -220.571 -1296 121 100 151 255 
-282.497 -219.72 -1291 118 104 144 255 
-279.386 -219.039 -1287 116 103 145 255 
-276.074 -218.188 -1282 115 101 146 255 
-272.78 -217.337 -1277 114 102 146 255 
-269.503 -216.486 -1272 113 106 147 255 
-267.294 -216.486 -1272 112 104 143 255 
-264.251 -215.805 -1268 112 103 140 255 
-261.016 -214.954 -1263 113 101 137 255 
-258.003 -214.273 -1259 113 100 134 255 
-254.8 -213.422 -1254 113 99 133 255 
-251.615 -212.571 -1249 110 100 133 255 
-248.647 -211.891 -1245 107 95 132 255 
-245.495 -211.04 -1240 102 91 131 255 
-242.557 -210.359 -1236 97 80 103 255 
-240.41 -210.359 -1236 69 46 76 255 
-238.264 -210.359 -1236 42 44 74 255 
-236.117 -210.359 -1236 46 45 73 255 
-233.213 -209.678 -1232 50 44 69 255 
-231.074 -209.678 -1232 51 45 65 255 
-228.934 -209.678 -1232 53 42 58 255 
-226.795 -209.678 -1232 47 39 52 255 
-224.655 -209.678 -1232 42 32 45 255 
-222.516 -209.678 -1232 39 29 38 255 
-220.376 -209.678 -1232 37 26 35 255 
-218.236 -209.678 -1232 38 25 32 255 
-216.097 -209.678 -1232 40 19 32 255 
-213.957 -209.678 -1232 39 16 32 255 
-211.818 -209.678 -1232 39 20 36 255 
-209.678 -209.678 -1232 39 27 40 255 
-207.539 -209.678 -1232 39 25 38 255 
-205.399 -209.678 -1232 38 25 37 255 
-203.259 -209.678 -1232 37 25 36 255 
-201.12 -209.678 -1232 38 27 36 255 
-199.626 -210.359 -1236 40 23 32 255 
-197.48 -210.359 -1236 37 23 28 255 
-195.333 -210.359 -1236 34 21 22 255 
-193.187 -210.359 -1236 32 15 16 255 
-191.04 -210.359 -1236 30 19 21 255 
-188.894 -210.359 -1236 28 20 27 255 
-186.747 -210.359 -1236 27 20 22 255 
-184.601 -210.359 -1236 26 20 18 255 
-182.454 -210.359 -1236 26 16 18 255 
-180.308 -210.359 -1236 23 17 18 255 
-178.161 -210.359 -1236 21 14 17 255 
-176.584 -211.04 -1240 17 14 17 255 
-174.431 -211.04 -1240 14 11 14 255 
-172.972 -211.891 -1245 27 9 12 255 
-170.81 -211.891 -1245 40 10 13 255 
-168.648 -211.891 -1245 31 12 14 255 
-166.486 -211.891 -1245 23 14 13 255 
-164.323 -211.891 -1245 23 18 13 255 
-162.682 -212.571 -1249 24 12 13 255 
-160.513 -212.571 -1249 27 10 14 255 
-158.344 -212.571 -1249 30 8 13 255 
-156.175 -212.571 -1249 28 9 12 255 
-154.006 -212.571 -1249 27 10 10 255 
-152.445 -213.422 -1254 25 10 8 255 
-150.267 -213.422 -1254 24 10 8 255 
-148.089 -213.422 -1254 16 8 8 255 
-146.493 -214.273 -1259 8 11 5 255 
-144.307 -214.273 -1259 10 11 2 255 
-142.12 -214.273 -1259 13 10 4 255 
-139.934 -214.273 -1259 17 9 7 255 
-138.185 -214.954 -1263 21 9 8 255 
-135.991 -214.954 -1263 19 10 9 255 
-133.798 -214.954 -1263 18 13 11 255 
-132.542 -216.486 -1272 18 12 13 255 
-131.358 -218.188 -1282 18 12 13 255 
-129.132 -218.188 -1282 19 14 13 255 
-127.4 -219.039 -1287 21 13 13 255 
-125.165 -219.039 -1287 20 13 13 255 
-122.93 -219.039 -1287 20 12 11 255 
-120.695 -219.039 -1287 17 14 9 255 
-118.46 -219.039 -1287 14 15 10 255 
-116.586 -219.72 -1291 15 17 12 255 
-114.344 -219.72 -1291 16 15 13 255 
-112.102 -219.72 -1291 13 15 15 255 
-109.86 -219.72 -1291 10 16 12 255 
-107.618 -219.72 -1291 14 17 10 255 
-105.376 -219.72 -1291 18 17 15 255 
-103.134 -219.72 -1291 13 18 20 255 
-101.282 -220.571 -1296 9 17 14 255 
-98.6496 -219.72 -1291 14 19 9 255 
-96.781 -220.571 -1296 20 20 8 255 
-94.5302 -220.571 -1296 28 20 7 255 
-92.2795 -220.571 -1296 36 16 7 255 
-90.0288 -220.571 -1296 35 14 8 255 
-87.7781 -220.571 -1296 34 14 6 255 
-85.5274 -220.571 -1296 28 15 5 255 
-83.2766 -220.571 -1296 23 13 8 255 
-81.3385 -221.422 -1301 30 14 11 255 
-78.7752 -220.571 -1296 37 12 10 255 
-76.8197 -221.422 -1301 28 13 9 255 
-74.8469 -222.272 -1306 19 14 8 255 
-72.5788 -222.272 -1306 20 21 7 255 
-70.3107 -222.272 -1306 21 17 8 255 
-68.0426 -222.272 -1306 21 18 9 255 
-65.7745 -222.272 -1306 21 16 7 255 
-63.5064 -222.272 -1306 25 14 6 255 
-61.4728 -223.123 -1311 30 13 7 255 
-59.196 -223.123 -1311 35 12 8 255 
-56.9193 -223.123 -1311 41 17 11 255 
-54.6425 -223.123 -1311 47 17 15 255 
-52.3657 -223.123 -1311 54 26 17 255 
-50.28 -223.974 -1316 58 33 20 255 
-47.8122 -223.123 -1311 62 37 19 255 
-45.5354 -223.123 -1311 69 41 19 255 
-291.463 -223.681 -1301 175 161 188 255 
-288.092 -222.821 -1296 150 119 160 255 
-284.739 -221.962 -1291 126 95 153 255 
-282.497 -221.962 -1291 117 98 146 255 
-279.386 -221.274 -1287 108 103 147 255 
-276.074 -220.414 -1282 111 102 148 255 
-273.848 -220.414 -1282 115 103 148 255 
-270.562 -219.555 -1277 116 106 149 255 
-267.294 -218.695 -1272 117 110 145 255 
-264.251 -218.007 -1268 119 105 142 255 
-261.016 -217.148 -1263 122 103 140 255 
-258.003 -216.46 -1259 118 100 139 255 
-254.8 -215.6 -1254 114 99 136 255 
-251.615 -214.741 -1249 109 98 134 255 
-248.647 -214.053 -1245 104 93 131 255 
-245.495 -213.193 -1240 100 88 129 255 
-242.557 -212.505 -1236 97 91 103 255 
-240.41 -212.505 -1236 70 57 77 255 
-238.264 -212.505 -1236 43 43 73 255 
-235.353 -211.818 -1232 47 40 69 255 
-233.213 -211.818 -1232 51 39 65 255 
-231.074 -211.818 -1232 50 39 62 255 
-228.934 -211.818 -1232 50 37 56 255 
-226.795 -211.818 -1232 44 34 50 255 
-224.655 -211.818 -1232 39 29 40 255 
-222.516 -211.818 -1232 36 27 31 255 
-220.376 -211.818 -1232 33 30 30 255 
-218.236 -211.818 -1232 34 25 29 255 
-216.097 -211.818 -1232 35 22 30 255 
-213.957 -211.818 -1232 35 18 31 255 
-211.818 -211.818 -1232 36 17 34 255 
-209.678 -211.818 -1232 36 20 38 255 
-207.539 -211.818 -1232 37 21 34 255 
-205.399 -211.818 -1232 37 19 31 255 
-203.259 -211.818 -1232 37 16 31 255 
-201.12 -211.818 -1232 36 18 32 255 
-198.98 -211.818 -1232 35 19 29 255 
-197.48 -212.505 -1236 33 19 26 255 
-195.333 -212.505 -1236 32 17 20 255 
-193.187 -212.505 -1236 29 16 14 255 
-191.04 -212.505 -1236 27 17 24 255 
-188.894 -212.505 -1236 26 17 34 255 
-186.747 -212.505 -1236 25 17 26 255 
-184.601 -212.505 -1236 25 14 18 255 
-182.454 -212.505 -1236 26 13 16 255 
-180.308 -212.505 -1236 25 10 15 255 
-178.161 -212.505 -1236 24 10 15 255 
-176.584 -213.193 -1240 21 10 15 255 
-175.134 -214.053 -1245 19 8 14 255 
-172.972 -214.053 -1245 25 8 13 255 
-170.81 -214.053 -1245 32 8 15 255 
-168.648 -214.053 -1245 26 10 17 255 
-166.486 -214.053 -1245 20 12 14 255 
-164.851 -214.741 -1249 20 12 11 255 
-162.682 -214.741 -1249 20 10 12 255 
-160.513 -214.741 -1249 21 7 14 255 
-158.344 -214.741 -1249 23 7 13 255 
-156.8 -215.6 -1254 22 7 12 255 
-154.622 -215.6 -1254 21 10 8 255 
-152.445 -215.6 -1254 20 10 5 255 
-150.866 -216.46 -1259 19 11 6 255 
-149.152 -217.148 -1263 15 11 7 255 
-146.958 -217.148 -1263 12 17 5 255 
-144.765 -217.148 -1263 13 12 4 255 
-142.572 -217.148 -1263 15 10 5 255 
-140.378 -217.148 -1263 20 10 7 255 
-138.732 -218.007 -1268 26 11 8 255 
-136.96 -218.695 -1272 22 12 10 255 
-134.328 -218.007 -1268 19 17 11 255 
-132.542 -218.695 -1272 19 14 12 255 
-131.358 -220.414 -1282 20 13 13 255 
-129.635 -221.274 -1287 21 12 15 255 
-127.4 -221.274 -1287 22 11 14 255 
-125.165 -221.274 -1287 24 10 14 255 
-122.93 -221.274 -1287 26 12 9 255 
-120.695 -221.274 -1287 21 14 5 255 
-118.828 -221.962 -1291 16 16 7 255 
-116.586 -221.962 -1291 17 16 10 255 
-114.344 -221.962 -1291 18 16 10 255 
-112.102 -221.962 -1291 20 15 10 255 
-109.86 -221.962 -1291 22 17 10 255 
-107.618 -221.962 -1291 20 16 11 255 
-105.376 -221.962 -1291 19 19 11 255 
-103.134 -221.962 -1291 21 17 12 255 
-100.892 -221.962 -1291 23 17 10 255 
-98.6496 -221.962 -1291 21 18 9 255 
-96.4076 -221.962 -1291 20 22 9 255 
-94.5302 -222.821 -1296 25 19 9 255 
-92.2795 -222.821 -1296 30 18 9 255 
-90.0288 -222.821 -1296 28 16 10 255 
-87.7781 -222.821 -1296 27 15 7 255 
-85.5274 -222.821 -1296 23 14 5 255 
-83.2766 -222.821 -1296 20 15 8 255 
-81.3385 -223.681 -1301 27 12 11 255 
-79.0791 -223.681 -1301 35 12 10 255 
-76.8197 -223.681 -1301 25 11 10 255 
-74.8469 -224.541 -1306 16 10 10 255 
-72.5788 -224.541 -1306 19 14 11 255 
-70.3107 -224.541 -1306 22 18 10 255 
-68.0426 -224.541 -1306 25 16 9 255 
-65.7745 -224.541 -1306 29 17 9 255 
-63.7496 -225.4 -1311 33 15 10 255 
-61.4728 -225.4 -1311 38 15 11 255 
-59.196 -225.4 -1311 44 20 12 255 
-56.9193 -225.4 -1311 50 28 16 255 
-54.6425 -225.4 -1311 56 27 21 255 
-52.5654 -226.26 -1316 63 35 21 255 
-50.28 -226.26 -1316 67 37 21 255 
-47.9945 -226.26 -1316 71 43 21 255 
-289.223 -224.204 -1291 190 163 196 255 
-286.981 -224.204 -1291 160 127 175 255 
-284.739 -224.204 -1291 131 112 163 255 
-281.621 -223.509 -1287 115 93 151 255 
-279.386 -223.509 -1287 100 97 150 255 
-276.074 -222.641 -1282 108 102 150 255 
-272.78 -221.772 -1277 117 105 152 255 
-270.562 -221.772 -1277 119 108 154 255 
-267.294 -220.904 -1272 122 107 149 255 
-264.251 -220.209 -1268 126 105 144 255 
-262.049 -220.209 -1268 131 102 143 255 
-258.822 -219.341 -1263 123 101 142 255 
-254.8 -217.778 -1254 115 100 142 255 
-251.615 -216.91 -1249 108 100 142 255 
-248.647 -216.215 -1245 102 92 129 255 
-245.495 -215.347 -1240 100 78 116 255 
-242.557 -214.652 -1236 98 74 103 255 
-240.41 -214.652 -1236 71 49 91 255 
-238.264 -214.652 -1236 45 38 73 255 
-235.353 -213.957 -1232 48 34 56 255 
-233.213 -213.957 -1232 52 35 57 255 
-231.074 -213.957 -1232 50 38 59 255 
-228.934 -213.957 -1232 48 34 53 255 
-226.795 -213.957 -1232 42 32 47 255 
-224.655 -213.957 -1232 36 23 39 255 
-222.516 -213.957 -1232 33 21 32 255 
-220.376 -213.957 -1232 30 22 30 255 
-218.236 -213.957 -1232 30 23 28 255 
-216.097 -213.957 -1232 30 19 26 255 
-213.957 -213.957 -1232 31 18 24 255 
-211.818 -213.957 -1232 33 17 33 255 
-209.678 -213.957 -1232 34 18 42 255 
-207.539 -213.957 -1232 35 16 35 255 
-205.399 -213.957 -1232 36 15 29 255 
-203.259 -213.957 -1232 37 14 27 255 
-201.12 -213.957 -1232 34 14 26 255 
-198.98 -213.957 -1232 31 14 26 255 
-197.48 -214.652 -1236 31 17 27 255 
-195.333 -214.652 -1236 31 15 24 255 
-193.187 -214.652 -1236 28 15 21 255 
-191.04 -214.652 -1236 25 13 25 255 
-188.894 -214.652 -1236 24 16 30 255 
-186.747 -214.652 -1236 24 12 23 255 
-184.601 -214.652 -1236 25 9 16 255 
-182.454 -214.652 -1236 27 7 16 255 
-180.891 -215.347 -1240 27 4 17 255 
-178.738 -215.347 -1240 27 6 15 255 
-176.584 -215.347 -1240 25 9 14 255 
-175.134 -216.215 -1245 24 9 13 255 
-172.972 -216.215 -1245 24 10 13 255 
-170.81 -216.215 -1245 25 9 13 255 
-169.19 -216.91 -1249 21 10 13 255 
-167.02 -216.91 -1249 17 8 11 255 
-164.851 -216.91 -1249 17 9 9 255 
-162.682 -216.91 -1249 17 7 12 255 
-160.513 -216.91 -1249 17 5 15 255 
-158.978 -217.778 -1254 17 5 13 255 
-156.8 -217.778 -1254 16 6 11 255 
-154.622 -217.778 -1254 15 9 9 255 
-153.052 -218.646 -1259 15 10 8 255 
-151.345 -219.341 -1263 15 10 8 255 
-149.742 -220.209 -1268 15 11 9 255 
-147.54 -220.209 -1268 16 12 12 255 
-145.338 -220.209 -1268 16 12 15 255 
-143.136 -220.209 -1268 17 11 14 255 
-140.934 -220.209 -1268 24 12 13 255 
-139.17 -220.904 -1272 32 11 12 255 
-137.499 -221.772 -1277 26 12 11 255 
-135.281 -221.772 -1277 21 16 15 255 
-133.584 -222.641 -1282 22 16 20 255 
-131.87 -223.509 -1287 23 13 19 255 
-129.635 -223.509 -1287 23 10 18 255 
-127.4 -223.509 -1287 24 9 17 255 
-125.165 -223.509 -1287 28 8 17 255 
-122.93 -223.509 -1287 32 11 18 255 
-120.695 -223.509 -1287 25 17 19 255 
-118.828 -224.204 -1291 19 15 14 255 
-116.586 -224.204 -1291 20 16 10 255 
-114.344 -224.204 -1291 21 14 10 255 
-112.102 -224.204 -1291 27 13 10 255 
-109.86 -224.204 -1291 34 13 12 255 
-107.618 -224.204 -1291 27 13 14 255 
-105.376 -224.204 -1291 21 13 18 255 
-103.134 -224.204 -1291 29 14 23 255 
-100.892 -224.204 -1291 38 14 16 255 
-98.6496 -224.204 -1291 29 15 9 255 
-96.4076 -224.204 -1291 21 17 7 255 
-94.1655 -224.204 -1291 22 19 6 255 
-92.2795 -225.072 -1296 24 17 10 255 
-90.0288 -225.072 -1296 22 18 14 255 
-87.7781 -225.072 -1296 21 15 10 255 
-85.5274 -225.072 -1296 19 13 7 255 
-83.2766 -225.072 -1296 18 11 8 255 
-81.3385 -225.94 -1301 26 10 10 255 
-79.0791 -225.94 -1301 34 14 8 255 
-76.8197 -225.94 -1301 24 12 7 255 
-74.8469 -226.809 -1306 14 13 8 255 
-72.8566 -227.677 -1311 19 10 10 255 
-70.5799 -227.677 -1311 24 15 9 255 
-68.3031 -227.677 -1311 31 14 9 255 
-66.0263 -227.677 -1311 38 17 11 255 
-63.7496 -227.677 -1311 42 15 14 255 
-61.4728 -227.677 -1311 47 21 16 255 
-59.196 -227.677 -1311 53 28 18 255 
-56.9193 -227.677 -1311 60 29 20 255 
-54.6425 -227.677 -1311 66 30 23 255 
-52.5654 -228.545 -1316 72 34 25 255 
-50.662 -230.282 -1326 76 38 27 255 
-48.3592 -230.282 -1326 80 42 27 255 
-288.327 -225.744 -1287 201 177 204 255 
-286.092 -225.744 -1287 177 155 190 255 
-283.856 -225.744 -1287 154 136 173 255 
-281.621 -225.744 -1287 130 108 156 255 
-278.301 -224.867 -1282 106 93 154 255 
-276.074 -224.867 -1282 113 99 153 255 
-272.78 -223.99 -1277 120 107 156 255 
-270.562 -223.99 -1277 120 107 159 255 
-267.294 -223.113 -1272 121 107 153 255 
-264.251 -222.411 -1268 123 104 147 255 
-262.049 -222.411 -1268 126 102 146 255 
-258.822 -221.534 -1263 120 102 145 255 
-255.816 -220.833 -1259 115 104 148 255 
-252.622 -219.956 -1254 111 103 151 255 
-248.647 -218.377 -1245 107 98 127 255 
-245.495 -217.5 -1240 107 87 103 255 
-243.342 -217.5 -1240 108 82 104 255 
-240.41 -216.799 -1236 76 58 106 255 
-238.264 -216.799 -1236 44 30 75 255 
-235.353 -216.097 -1232 49 26 44 255 
-233.213 -216.097 -1232 54 31 50 255 
-231.074 -216.097 -1232 49 32 56 255 
-228.934 -216.097 -1232 45 29 50 255 
-226.795 -216.097 -1232 35 23 45 255 
-223.743 -215.22 -1227 25 13 39 255 
-221.613 -215.22 -1227 27 17 34 255 
-219.482 -215.22 -1227 30 17 31 255 
-218.236 -216.097 -1232 29 17 28 255 
-216.097 -216.097 -1232 28 14 23 255 
-213.957 -216.097 -1232 26 15 18 255 
-211.818 -216.097 -1232 25 15 32 255 
-209.678 -216.097 -1232 29 15 47 255 
-207.539 -216.097 -1232 33 14 37 255 
-205.399 -216.097 -1232 33 14 28 255 
-203.259 -216.097 -1232 34 15 24 255 
-201.12 -216.097 -1232 31 13 20 255 
-198.98 -216.097 -1232 28 10 24 255 
-197.48 -216.799 -1236 25 11 28 255 
-195.333 -216.799 -1236 23 11 28 255 
-193.187 -216.799 -1236 23 10 28 255 
-191.04 -216.799 -1236 24 7 27 255 
-188.894 -216.799 -1236 22 9 27 255 
-186.747 -216.799 -1236 20 10 20 255 
-184.601 -216.799 -1236 22 8 14 255 
-183.045 -217.5 -1240 25 5 16 255 
-180.891 -217.5 -1240 28 5 19 255 
-178.738 -217.5 -1240 32 5 16 255 
-177.296 -218.377 -1245 27 8 14 255 
-175.697 -219.079 -1249 23 12 14 255 
-173.528 -219.079 -1249 20 11 14 255 
-171.359 -219.079 -1249 18 11 11 255 
-169.19 -219.079 -1249 15 8 9 255 
-167.02 -219.079 -1249 12 5 8 255 
-164.851 -219.079 -1249 13 6 8 255 
-162.682 -219.079 -1249 15 5 12 255 
-160.513 -219.079 -1249 17 5 16 255 
-158.978 -219.956 -1254 19 5 13 255 
-157.425 -220.833 -1259 16 8 11 255 
-155.239 -220.833 -1259 14 12 11 255 
-153.539 -221.534 -1263 15 10 11 255 
-151.944 -222.411 -1268 16 9 11 255 
-149.742 -222.411 -1268 17 11 11 255 
-147.54 -222.411 -1268 18 12 19 255 
-145.797 -223.113 -1272 19 11 27 255 
-143.588 -223.113 -1272 21 10 23 255 
-141.379 -223.113 -1272 23 11 19 255 
-139.717 -223.99 -1277 26 12 16 255 
-137.499 -223.99 -1277 22 14 13 255 
-135.811 -224.867 -1282 19 19 20 255 
-133.584 -224.867 -1282 21 16 28 255 
-131.87 -225.744 -1287 23 15 24 255 
-129.635 -225.744 -1287 22 11 21 255 
-127.4 -225.744 -1287 22 7 21 255 
-125.165 -225.744 -1287 24 9 21 255 
-122.93 -225.744 -1287 26 11 27 255 
-120.695 -225.744 -1287 21 13 34 255 
-118.828 -226.446 -1291 16 12 22 255 
-116.586 -226.446 -1291 18 13 10 255 
-114.344 -226.446 -1291 20 13 10 255 
-112.102 -226.446 -1291 21 13 11 255 
-109.86 -226.446 -1291 22 11 14 255 
-107.618 -226.446 -1291 22 11 17 255 
-105.376 -226.446 -1291 22 10 26 255 
-103.134 -226.446 -1291 26 10 35 255 
-100.892 -226.446 -1291 31 12 22 255 
-98.6496 -226.446 -1291 24 11 10 255 
-96.4076 -226.446 -1291 18 13 7 255 
-94.1655 -226.446 -1291 18 15 4 255 
-92.2795 -227.323 -1296 19 16 11 255 
-90.0288 -227.323 -1296 18 15 18 255 
-87.7781 -227.323 -1296 17 15 14 255 
-85.5274 -227.323 -1296 13 10 10 255 
-83.2766 -227.323 -1296 9 7 10 255 
-81.3385 -228.2 -1301 14 11 10 255 
-79.0791 -228.2 -1301 20 24 7 255 
-76.8197 -228.2 -1301 16 40 5 255 
-74.8469 -229.077 -1306 12 21 7 255 
-72.5788 -229.077 -1306 23 19 9 255 
-70.5799 -229.954 -1311 35 21 9 255 
-68.3031 -229.954 -1311 40 22 10 255 
-66.0263 -229.954 -1311 45 24 14 255 
-63.7496 -229.954 -1311 49 25 18 255 
-61.4728 -229.954 -1311 54 27 21 255 
-59.196 -229.954 -1311 61 30 24 255 
-56.9193 -229.954 -1311 68 32 25 255 
-54.8509 -230.831 -1316 71 34 26 255 
-286.092 -227.979 -1287 195 182 206 255 
-283.856 -227.979 -1287 178 148 184 255 
-281.621 -227.979 -1287 145 113 162 255 
-278.301 -227.093 -1282 112 103 155 255 
-276.074 -227.093 -1282 117 94 149 255 
-272.78 -226.208 -1277 123 102 151 255 
-270.562 -226.208 -1277 121 109 154 255 
-267.294 -225.322 -1272 120 105 150 255 
-264.251 -224.614 -1268 121 104 147 255 
-262.049 -224.614 -1268 122 102 147 255 
-258.822 -223.728 -1263 119 103 147 255 
-255.816 -223.019 -1259 116 105 153 255 
-252.622 -222.134 -1254 114 112 159 255 
-249.446 -221.248 -1249 112 105 144 255 
-246.485 -220.539 -1245 115 91 129 255 
-243.342 -219.654 -1240 118 86 116 255 
-240.41 -218.945 -1236 81 72 104 255 
-238.264 -218.945 -1236 44 49 70 255 
-235.353 -218.236 -1232 50 12 37 255 
-233.213 -218.236 -1232 56 23 46 255 
-231.074 -218.236 -1232 49 30 55 255 
-228.934 -218.236 -1232 42 26 48 255 
-226.795 -218.236 -1232 28 21 42 255 
-223.743 -217.351 -1227 15 17 37 255 
-221.613 -217.351 -1227 22 17 33 255 
-219.482 -217.351 -1227 30 16 34 255 
-218.236 -218.236 -1232 28 17 36 255 
-216.097 -218.236 -1232 27 15 30 255 
-213.957 -218.236 -1232 22 16 25 255 
-211.818 -218.236 -1232 17 15 30 255 
-209.678 -218.236 -1232 24 15 36 255 
-207.539 -218.236 -1232 31 13 31 255 
-205.399 -218.236 -1232 31 13 26 255 
-203.259 -218.236 -1232 31 13 22 255 
-201.12 -218.236 -1232 28 14 19 255 
-198.98 -218.236 -1232 25 10 20 255 
-197.48 -218.945 -1236 20 9 22 255 
-195.333 -218.945 -1236 15 8 23 255 
-193.187 -218.945 -1236 19 7 24 255 
-191.04 -218.945 -1236 24 6 24 255 
-188.894 -218.945 -1236 20 7 24 255 
-186.747 -218.945 -1236 17 10 18 255 
-185.198 -219.654 -1240 20 10 12 255 
-183.045 -219.654 -1240 24 8 14 255 
-181.621 -220.539 -1245 31 9 16 255 
-179.458 -220.539 -1245 38 7 12 255 
-177.866 -221.248 -1249 30 7 8 255 
-175.697 -221.248 -1249 23 10 10 255 
-173.528 -221.248 -1249 17 12 13 255 
-171.359 -221.248 -1249 12 11 11 255 
-169.19 -221.248 -1249 10 8 9 255 
-167.02 -221.248 -1249 8 8 10 255 
-165.511 -222.134 -1254 11 8 11 255 
-163.333 -222.134 -1254 14 7 12 255 
-161.156 -222.134 -1254 18 7 14 255 
-158.978 -222.134 -1254 22 8 10 255 
-157.926 -223.728 -1263 17 12 7 255 
-155.732 -223.728 -1263 13 12 9 255 
-154.147 -224.614 -1268 15 12 12 255 
-151.944 -224.614 -1268 18 12 11 255 
-150.215 -225.322 -1272 19 14 11 255 
-148.006 -225.322 -1272 21 13 17 255 
-145.797 -225.322 -1272 23 12 23 255 
-143.588 -225.322 -1272 26 12 19 255 
-141.379 -225.322 -1272 23 12 16 255 
-139.717 -226.208 -1277 20 14 14 255 
-138.037 -227.093 -1282 18 17 12 255 
-135.811 -227.093 -1282 17 16 17 255 
-134.105 -227.979 -1287 20 14 23 255 
-131.87 -227.979 -1287 24 13 21 255 
-129.635 -227.979 -1287 22 13 19 255 
-127.4 -227.979 -1287 21 10 19 255 
-125.165 -227.979 -1287 21 12 19 255 
-122.93 -227.979 -1287 21 12 23 255 
-120.695 -227.979 -1287 17 14 28 255 
-118.46 -227.979 -1287 14 13 18 255 
-116.586 -228.688 -1291 17 14 9 255 
-114.344 -228.688 -1291 20 14 9 255 
-112.102 -228.688 -1291 15 16 9 255 
-109.86 -228.688 -1291 11 12 11 255 
-107.618 -228.688 -1291 17 11 14 255 
-105.376 -228.688 -1291 23 8 19 255 
-103.134 -228.688 -1291 24 7 24 255 
-100.892 -228.688 -1291 25 7 17 255 
-98.6496 -228.688 -1291 20 6 10 255 
-96.4076 -228.688 -1291 15 10 6 255 
-94.1655 -228.688 -1291 14 14 3 255 
-92.2795 -229.573 -1296 14 13 8 255 
-90.0288 -229.573 -1296 13 14 14 255 
-87.7781 -229.573 -1296 13 9 9 255 
-85.5274 -229.573 -1296 7 6 5 255 
-83.2766 -229.573 -1296 1 6 11 255 
-81.3385 -230.459 -1301 4 6 18 255 
-79.0791 -230.459 -1301 7 66 31 255 
-76.8197 -230.459 -1301 9 106 44 255 
-74.8469 -231.345 -1306 11 69 24 255 
-72.5788 -231.345 -1306 29 25 5 255 
-70.5799 -232.231 -1311 47 32 5 255 
-68.3031 -232.231 -1311 50 31 5 255 
-66.0263 -232.231 -1311 53 32 10 255 
-63.9927 -233.116 -1316 57 36 16 255 
-61.7072 -233.116 -1316 61 35 19 255 
-59.4218 -233.116 -1316 68 34 22 255 
-57.1363 -233.116 -1316 76 38 24 255 
-282.754 -229.32 -1282 194 164 195 255 
-280.527 -229.32 -1282 159 134 169 255 
-278.301 -229.32 -1282 125 113 157 255 
-274.998 -228.426 -1277 122 103 145 255 
-272.78 -228.426 -1277 120 102 147 255 
-270.562 -228.426 -1277 120 103 150 255 
-267.294 -227.531 -1272 120 103 149 255 
-264.251 -226.816 -1268 118 103 148 255 
-262.049 -226.816 -1268 117 101 148 255 
-258.822 -225.921 -1263 114 102 149 255 
-255.816 -225.206 -1259 112 103 158 255 
-253.63 -225.206 -1259 111 110 168 255 
-249.446 -223.417 -1249 111 122 162 255 
-247.277 -223.417 -1249 117 108 156 255 
-244.323 -222.701 -1245 124 101 129 255 
-240.41 -221.092 -1236 103 92 102 255 
-238.264 -221.092 -1236 82 82 66 255 
-236.117 -221.092 -1236 69 48 30 255 
-233.213 -220.376 -1232 57 19 42 255 
-231.074 -220.376 -1232 51 23 55 255 
-228.934 -220.376 -1232 46 25 47 255 
-226.795 -220.376 -1232 33 20 40 255 
-224.655 -220.376 -1232 20 18 36 255 
-222.516 -220.376 -1232 24 15 32 255 
-219.482 -219.482 -1227 28 16 38 255 
-218.236 -220.376 -1232 27 15 44 255 
-215.22 -219.482 -1227 26 14 38 255 
-213.957 -220.376 -1232 24 15 33 255 
-211.818 -220.376 -1232 23 16 29 255 
-209.678 -220.376 -1232 30 13 26 255 
-207.539 -220.376 -1232 37 10 25 255 
-205.399 -220.376 -1232 33 11 25 255 
-203.259 -220.376 -1232 30 13 21 255 
-201.12 -220.376 -1232 32 13 18 255 
-198.98 -220.376 -1232 34 11 17 255 
-197.48 -221.092 -1236 28 8 16 255 
-195.333 -221.092 -1236 22 5 18 255 
-193.187 -221.092 -1236 23 6 21 255 
-191.04 -221.092 -1236 25 4 21 255 
-188.894 -221.092 -1236 22 9 21 255 
-187.352 -221.807 -1240 20 14 15 255 
-185.198 -221.807 -1240 21 10 10 255 
-183.045 -221.807 -1240 22 9 12 255 
-181.621 -222.701 -1245 27 8 14 255 
-179.458 -222.701 -1245 33 9 8 255 
-177.866 -223.417 -1249 26 8 3 255 
-175.697 -223.417 -1249 20 10 8 255 
-174.222 -224.311 -1254 17 11 13 255 
-172.045 -224.311 -1254 14 13 11 255 
-169.867 -224.311 -1254 13 12 10 255 
-167.689 -224.311 -1254 12 14 12 255 
-165.511 -224.311 -1254 13 11 14 255 
-163.985 -225.206 -1259 15 12 13 255 
-161.798 -225.206 -1259 19 9 12 255 
-160.119 -225.921 -1263 24 11 8 255 
-158.551 -226.816 -1268 23 12 4 255 
-156.349 -226.816 -1268 23 14 9 255 
-154.633 -227.531 -1272 22 12 14 255 
-152.424 -227.531 -1272 22 15 13 255 
-150.215 -227.531 -1272 23 14 12 255 
-148.006 -227.531 -1272 25 15 16 255 
-145.797 -227.531 -1272 29 13 20 255 
-144.152 -228.426 -1277 34 15 16 255 
-141.934 -228.426 -1277 29 14 13 255 
-140.264 -229.32 -1282 25 17 12 255 
-138.037 -229.32 -1282 23 15 12 255 
-135.811 -229.32 -1282 22 16 15 255 
-134.105 -230.214 -1287 23 13 19 255 
-131.87 -230.214 -1287 25 12 18 255 
-129.635 -230.214 -1287 25 12 17 255 
-127.4 -230.214 -1287 26 12 17 255 
-125.165 -230.214 -1287 24 12 17 255 
-122.93 -230.214 -1287 23 14 19 255 
-120.695 -230.214 -1287 23 13 22 255 
-118.46 -230.214 -1287 24 14 15 255 
-116.225 -230.214 -1287 21 13 9 255 
-114.344 -230.93 -1291 18 13 8 255 
-112.102 -230.93 -1291 15 12 7 255 
-109.86 -230.93 -1291 12 11 9 255 
-107.618 -230.93 -1291 16 8 12 255 
-105.376 -230.93 -1291 21 5 13 255 
-103.134 -230.93 -1291 21 4 14 255 
-100.892 -230.93 -1291 21 4 12 255 
-98.6496 -230.93 -1291 17 7 11 255 
-96.4076 -230.93 -1291 13 10 6 255 
-94.1655 -230.93 -1291 13 10 2 255 
-92.2795 -231.824 -1296 14 10 6 255 
-90.0288 -231.824 -1296 10 7 10 255 
-88.1167 -232.719 -1301 7 4 5 255 
-85.5274 -231.824 -1296 22 5 1 255 
-83.5979 -232.719 -1301 38 8 13 255 
-81.3385 -232.719 -1301 46 73 26 255 
-79.0791 -232.719 -1301 55 128 54 255 
-76.8197 -232.719 -1301 53 130 83 255 
-74.8469 -233.613 -1306 52 128 42 255 
-72.5788 -233.613 -1306 53 82 1 255 
-70.5799 -234.507 -1311 55 54 1 255 
-68.3031 -234.507 -1311 58 36 1 255 
-66.2781 -235.402 -1316 62 39 8 255 
-64.2358 -236.296 -1321 64 40 15 255 
-61.7072 -235.402 -1316 66 45 18 255 
-59.6476 -236.296 -1321 71 44 21 255 
-282.754 -231.546 -1282 210 168 203 255 
-280.527 -231.546 -1282 174 149 187 255 
-278.301 -231.546 -1282 139 129 165 255 
-274.998 -230.643 -1277 128 105 143 255 
-272.78 -230.643 -1277 118 100 146 255 
-270.562 -230.643 -1277 119 100 150 255 
-267.294 -229.74 -1272 120 102 147 255 
-264.251 -229.018 -1268 116 105 145 255 
-262.049 -229.018 -1268 112 103 145 255 
-258.822 -228.115 -1263 110 104 145 255 
-255.816 -227.392 -1259 109 102 151 255 
-253.63 -227.392 -1259 109 107 157 255 
-250.445 -226.489 -1254 110 115 154 255 
-247.277 -225.586 -1249 120 121 152 255 
-244.323 -224.864 -1245 130 114 138 255 
-241.188 -223.961 -1240 125 115 124 255 
-238.264 -223.238 -1236 121 97 104 255 
-236.117 -223.238 -1236 90 82 85 255 
-233.213 -222.516 -1232 59 52 71 255 
-231.074 -222.516 -1232 54 21 58 255 
-228.934 -222.516 -1232 50 21 51 255 
-226.795 -222.516 -1232 38 19 44 255 
-224.655 -222.516 -1232 26 14 35 255 
-222.516 -222.516 -1232 26 12 27 255 
-220.376 -222.516 -1232 26 15 31 255 
-218.236 -222.516 -1232 26 16 35 255 
-216.097 -222.516 -1232 26 15 32 255 
-213.957 -222.516 -1232 28 14 29 255 
-211.818 -222.516 -1232 30 12 26 255 
-209.678 -222.516 -1232 37 13 24 255 
-207.539 -222.516 -1232 44 12 26 255 
-205.399 -222.516 -1232 37 11 29 255 
-203.259 -222.516 -1232 30 13 20 255 
-201.12 -222.516 -1232 37 15 11 255 
-199.626 -223.238 -1236 44 11 14 255 
-197.48 -223.238 -1236 36 7 18 255 
-195.333 -223.238 -1236 29 7 19 255 
-193.187 -223.238 -1236 27 9 20 255 
-191.04 -223.238 -1236 26 10 19 255 
-188.894 -223.238 -1236 24 14 19 255 
-186.747 -223.238 -1236 23 12 17 255 
-185.198 -223.961 -1240 21 10 15 255 
-183.045 -223.961 -1240 20 8 18 255 
-180.891 -223.961 -1240 24 5 22 255 
-179.458 -224.864 -1245 28 7 16 255 
-177.866 -225.586 -1249 23 7 10 255 
-176.4 -226.489 -1254 18 10 14 255 
-174.222 -226.489 -1254 17 13 18 255 
-172.045 -226.489 -1254 16 14 14 255 
-169.867 -226.489 -1254 16 17 10 255 
-168.358 -227.392 -1259 16 14 11 255 
-166.171 -227.392 -1259 16 12 13 255 
-163.985 -227.392 -1259 17 10 16 255 
-162.312 -228.115 -1263 21 7 19 255 
-160.753 -229.018 -1268 26 10 14 255 
-158.551 -229.018 -1268 30 13 10 255 
-156.842 -229.74 -1272 34 11 12 255 
-154.633 -229.74 -1272 30 10 14 255 
-152.424 -229.74 -1272 27 11 14 255 
-150.215 -229.74 -1272 28 12 14 255 
-148.587 -230.643 -1277 30 12 17 255 
-146.37 -230.643 -1277 36 13 21 255 
-144.152 -230.643 -1277 43 12 18 255 
-141.934 -230.643 -1277 36 12 15 255 
-140.264 -231.546 -1282 30 12 18 255 
-138.037 -231.546 -1282 28 12 21 255 
-135.811 -231.546 -1282 27 11 20 255 
-133.584 -231.546 -1282 27 12 19 255 
-131.358 -231.546 -1282 27 10 17 255 
-129.635 -232.449 -1287 29 11 15 255 
-127.4 -232.449 -1287 31 10 16 255 
-125.165 -232.449 -1287 28 10 17 255 
-122.93 -232.449 -1287 25 10 18 255 
-120.695 -232.449 -1287 29 10 20 255 
-118.46 -232.449 -1287 34 10 13 255 
-116.225 -232.449 -1287 25 12 7 255 
-113.99 -232.449 -1287 17 10 7 255 
-111.755 -232.449 -1287 15 9 7 255 
-109.519 -232.449 -1287 14 7 8 255 
-107.284 -232.449 -1287 16 6 10 255 
-105.376 -233.172 -1291 19 5 12 255 
-103.134 -233.172 -1291 18 3 14 255 
-100.892 -233.172 -1291 17 5 12 255 
-98.6496 -233.172 -1291 14 9 10 255 
-96.4076 -233.172 -1291 12 7 6 255 
-94.1655 -233.172 -1291 13 7 3 255 
-92.2795 -234.075 -1296 14 5 4 255 
-90.0288 -234.075 -1296 7 2 5 255 
-88.1167 -234.978 -1301 1 5 23 255 
-85.5274 -234.075 -1296 38 2 41 255 
-83.5979 -234.978 -1301 76 82 49 255 
-81.3385 -234.978 -1301 89 150 58 255 
-78.7752 -234.075 -1296 103 148 67 255 
-76.5245 -234.075 -1296 98 159 77 255 
-74.8469 -235.881 -1306 94 141 60 255 
-72.5788 -235.881 -1306 79 123 43 255 
-70.5799 -236.784 -1311 64 82 22 255 
-68.5636 -237.687 -1316 68 24 1 255 
-67.0336 -240.396 -1331 72 37 10 255 
-64.7221 -240.396 -1331 72 43 19 255 
-62.4106 -240.396 -1331 72 46 19 255 
-280.527 -233.773 -1282 190 164 205 255 
-277.215 -232.861 -1277 175 152 173 255 
-274.998 -232.861 -1277 141 120 141 255 
-272.78 -232.861 -1277 107 97 146 255 
-269.503 -231.949 -1272 110 98 151 255 
-267.294 -231.949 -1272 113 104 147 255 
-264.251 -231.22 -1268 108 98 143 255 
-261.016 -230.308 -1263 104 104 142 255 
-258.822 -230.308 -1263 102 95 142 255 
-255.816 -229.579 -1259 100 95 144 255 
-253.63 -229.579 -1259 101 97 146 255 
-250.445 -228.667 -1254 102 110 147 255 
-247.277 -227.755 -1249 109 108 149 255 
-244.323 -227.026 -1245 116 119 148 255 
-242.161 -227.026 -1245 113 109 147 255 
-238.264 -225.385 -1236 110 112 144 255 
-236.117 -225.385 -1236 88 94 141 255 
-233.213 -224.655 -1232 67 89 101 255 
-231.074 -224.655 -1232 60 40 61 255 
-228.934 -224.655 -1232 53 20 54 255 
-226.795 -224.655 -1232 41 16 48 255 
-224.655 -224.655 -1232 30 11 35 255 
-222.516 -224.655 -1232 26 13 23 255 
-220.376 -224.655 -1232 23 18 25 255 
-218.236 -224.655 -1232 24 16 27 255 
-216.097 -224.655 -1232 26 17 26 255 
-213.957 -224.655 -1232 27 12 26 255 
-211.818 -224.655 -1232 28 8 24 255 
-209.678 -224.655 -1232 30 11 23 255 
-207.539 -224.655 -1232 33 14 28 255 
-205.399 -224.655 -1232 29 12 33 255 
-203.259 -224.655 -1232 25 16 19 255 
-201.12 -224.655 -1232 28 13 5 255 
-199.626 -225.385 -1236 32 12 13 255 
-197.48 -225.385 -1236 28 10 21 255 
-195.333 -225.385 -1236 24 10 20 255 
-193.187 -225.385 -1236 22 11 19 255 
-191.04 -225.385 -1236 20 16 18 255 
-188.894 -225.385 -1236 25 14 17 255 
-187.352 -226.114 -1240 30 13 19 255 
-185.198 -226.114 -1240 26 11 21 255 
-183.045 -226.114 -1240 22 11 26 255 
-181.621 -227.026 -1245 24 9 31 255 
-180.035 -227.755 -1249 27 9 24 255 
-178.578 -228.667 -1254 23 10 17 255 
-176.4 -228.667 -1254 19 12 20 255 
-174.917 -229.579 -1259 19 13 23 255 
-172.731 -229.579 -1259 20 16 16 255 
-171.086 -230.308 -1263 21 15 10 255 
-168.893 -230.308 -1263 23 15 11 255 
-166.699 -230.308 -1263 20 11 13 255 
-164.506 -230.308 -1263 18 10 20 255 
-162.955 -231.22 -1268 22 10 27 255 
-160.753 -231.22 -1268 26 12 22 255 
-159.051 -231.949 -1272 27 13 17 255 
-156.842 -231.949 -1272 28 10 15 255 
-154.633 -231.949 -1272 27 10 14 255 
-153.023 -232.861 -1277 26 9 15 255 
-150.805 -232.861 -1277 27 11 16 255 
-148.587 -232.861 -1277 28 11 19 255 
-146.37 -232.861 -1277 31 11 23 255 
-144.152 -232.861 -1277 34 12 20 255 
-141.934 -232.861 -1277 31 11 17 255 
-139.717 -232.861 -1277 28 10 23 255 
-138.037 -233.773 -1282 31 8 30 255 
-135.811 -233.773 -1282 34 7 24 255 
-133.584 -233.773 -1282 29 7 19 255 
-131.358 -233.773 -1282 24 7 16 255 
-129.635 -234.684 -1287 24 7 14 255 
-127.4 -234.684 -1287 24 8 16 255 
-125.165 -234.684 -1287 23 7 18 255 
-122.93 -234.684 -1287 22 7 18 255 
-120.695 -234.684 -1287 24 6 18 255 
-118.46 -234.684 -1287 26 6 11 255 
-116.225 -234.684 -1287 18 7 5 255 
-113.99 -234.684 -1287 11 7 6 255 
-112.102 -235.414 -1291 11 6 8 255 
-109.86 -235.414 -1291 12 6 8 255 
-107.618 -235.414 -1291 13 5 9 255 
-105.376 -235.414 -1291 15 7 11 255 
-103.134 -235.414 -1291 13 6 14 255 
-101.282 -236.326 -1296 12 7 12 255 
-99.0317 -236.326 -1296 9 6 10 255 
-96.781 -236.326 -1296 6 5 7 255 
-94.5302 -236.326 -1296 6 4 4 255 
-92.6355 -237.237 -1301 7 4 2 255 
-90.0288 -236.326 -1296 28 23 1 255 
-88.1167 -237.237 -1301 50 12 41 255 
-85.5274 -236.326 -1296 67 82 82 255 
-83.5979 -237.237 -1301 84 168 86 255 
-81.0259 -236.326 -1296 90 158 90 255 
-78.4713 -235.414 -1291 97 156 81 255 
-76.2292 -235.414 -1291 99 156 72 255 
-74.2738 -236.326 -1296 102 157 79 255 
-72.023 -236.326 -1296 91 143 86 255 
-69.7723 -236.326 -1296 80 131 43 255 
-68.0912 -246.537 -1352 80 44 12 255 
-277.215 -235.079 -1277 211 164 188 255 
-273.921 -234.158 -1272 154 128 164 255 
-271.712 -234.158 -1272 97 111 155 255 
-269.503 -234.158 -1272 102 95 147 255 
-267.294 -234.158 -1272 107 94 135 255 
-264.251 -233.422 -1268 101 79 124 255 
-261.016 -232.501 -1263 96 84 123 255 
-258.822 -232.501 -1263 93 79 123 255 
-255.816 -231.765 -1259 91 82 127 255 
-253.63 -231.765 -1259 93 77 132 255 
-250.445 -230.845 -1254 95 87 128 255 
-247.277 -229.924 -1249 99 83 125 255 
-245.108 -229.924 -1249 103 95 125 255 
