ply
format ascii 1.0
comment VCGLIB generated
element vertex 1245
property float x
property float y
property float z
property uchar red
property uchar green
property uchar blue
property uchar alpha
element face 0
property list uchar int vertex_indices
end_header
-84.0547 -107.17 -1210 122 131 157 255 
-81.9533 -107.17 -1210 108 139 138 255 
-79.588 -106.815 -1206 101 110 119 255 
-78.0076 -107.524 -1214 94 99 120 255 
-75.6492 -107.17 -1210 95 98 122 255 
-73.5478 -107.17 -1210 97 94 118 255 
-71.6827 -107.524 -1214 95 91 114 255 
-69.3451 -107.17 -1210 93 84 115 255 
-67.0214 -106.815 -1206 94 85 116 255 
-64.927 -106.815 -1206 96 87 113 255 
-62.8326 -106.815 -1206 95 85 111 255 
-60.7382 -106.815 -1206 95 82 107 255 
-58.4493 -106.461 -1202 93 78 103 255 
-56.3618 -106.461 -1202 91 74 99 255 
-54.2743 -106.461 -1202 88 72 95 255 
-52.1868 -106.461 -1202 86 69 92 255 
-50.0994 -106.461 -1202 82 70 89 255 
-48.0119 -106.461 -1202 79 70 92 255 
-45.9244 -106.461 -1202 81 70 95 255 
-43.8369 -106.461 -1202 84 76 93 255 
-41.7495 -106.461 -1202 82 77 91 255 
-39.662 -106.461 -1202 81 76 87 255 
-37.5745 -106.461 -1202 77 74 84 255 
-35.487 -106.461 -1202 73 73 81 255 
-33.3996 -106.461 -1202 75 66 78 255 
-31.4163 -106.815 -1206 77 58 71 255 
-29.3219 -106.815 -1206 73 49 64 255 
-27.3178 -107.17 -1210 70 41 56 255 
-25.2164 -107.17 -1210 65 38 49 255 
-23.115 -107.17 -1210 61 37 32 255 
-21.0831 -107.524 -1214 62 39 16 255 
-18.9748 -107.524 -1214 63 46 31 255 
-16.8109 -107.17 -1210 63 45 46 255 
-14.7096 -107.17 -1210 63 45 47 255 
-12.6082 -107.17 -1210 61 44 48 255 
-10.5068 -107.17 -1210 60 41 45 255 
-8.40547 -107.17 -1210 59 42 42 255 
-6.3041 -107.17 -1210 59 44 43 255 
-4.20273 -107.17 -1210 55 43 45 255 
-2.10137 -107.17 -1210 52 40 49 255 
0 -107.17 -1210 53 41 54 255 
2.10831 -107.524 -1214 55 43 52 255 
4.21663 -107.524 -1214 54 43 51 255 
6.35099 -107.967 -1219 54 41 48 255 
8.46799 -107.967 -1219 52 35 45 255 
10.585 -107.967 -1219 51 28 38 255 
12.7437 -108.321 -1223 46 30 31 255 
14.8676 -108.321 -1223 41 33 38 255 
16.9915 -108.321 -1223 45 31 46 255 
19.178 -108.675 -1227 50 30 35 255 
21.3089 -108.675 -1227 48 29 24 255 
23.5353 -109.118 -1232 46 31 15 255 
25.7582 -109.473 -1236 46 30 6 255 
27.9951 -109.827 -1240 47 38 38 255 
30.2701 -110.27 -1245 62 90 70 255 
32.5364 -110.624 -1249 77 123 60 255 
35.0946 -111.864 -1263 71 99 51 255 
37.288 -111.864 -1263 65 86 44 255 
39.6377 -112.307 -1268 57 44 38 255 
42.1367 -113.104 -1277 49 27 21 255 
44.5281 -113.547 -1282 37 23 4 255 
46.9369 -113.99 -1287 25 21 10 255 
49.3248 -114.344 -1291 31 23 16 255 
51.9663 -115.23 -1301 38 28 19 255 
54.4341 -115.672 -1306 44 28 22 255 
56.7022 -115.672 -1306 51 33 19 255 
58.9703 -115.672 -1306 47 26 17 255 
66.035 -120.278 -1358 38 16 12 255 
68.6452 -120.721 -1363 33 10 10 255 
71.2728 -121.164 -1368 33 13 9 255 
73.6486 -121.164 -1368 33 16 8 255 
76.0243 -121.164 -1368 29 14 7 255 
78.4001 -121.164 -1368 25 12 9 255 
80.7758 -121.164 -1368 22 14 11 255 
83.1516 -121.164 -1368 20 15 12 255 
85.5274 -121.164 -1368 27 16 14 255 
87.5818 -120.721 -1363 34 21 18 255 
89.9489 -120.721 -1363 31 25 22 255 
92.316 -120.721 -1363 29 34 23 255 
94.6831 -120.721 -1363 35 33 25 255 
97.0501 -120.721 -1363 41 33 15 255 
99.4172 -120.721 -1363 43 15 5 255 
101.784 -120.721 -1363 46 19 60 255 
104.533 -121.164 -1368 108 95 116 255 
106.909 -121.164 -1368 171 129 111 255 
109.285 -121.164 -1368 168 126 107 255 
-184.071 -115.322 -1277 121 129 153 255 
-180.572 -114.509 -1268 126 110 144 255 
-178.37 -114.509 -1268 131 116 157 255 
-175.473 -114.057 -1263 131 122 171 255 
-173.279 -114.057 -1263 132 122 165 255 
-170.544 -113.696 -1259 131 123 159 255 
-168.358 -113.696 -1259 130 123 157 255 
-165.511 -113.245 -1254 128 125 156 255 
-163.333 -113.245 -1254 127 120 150 255 
-159.999 -112.432 -1245 129 116 144 255 
-157.837 -112.432 -1245 131 119 154 255 
-155.05 -111.98 -1240 130 127 165 255 
-152.403 -111.619 -1236 130 128 167 255 
-150.256 -111.619 -1236 130 125 169 255 
-148.11 -111.619 -1236 131 124 164 255 
-145.963 -111.619 -1236 133 124 159 255 
-143.817 -111.619 -1236 136 127 167 255 
-141.67 -111.619 -1236 148 136 175 255 
-139.072 -111.258 -1232 160 151 174 255 
-136.933 -111.258 -1232 143 163 174 255 
-134.246 -110.806 -1227 126 113 155 255 
-132.115 -110.806 -1227 108 95 136 255 
-129.984 -110.806 -1227 90 106 138 255 
-127.437 -110.445 -1223 106 114 140 255 
-125.313 -110.445 -1223 123 110 139 255 
-123.189 -110.445 -1223 123 118 138 255 
-121.065 -110.445 -1223 124 110 137 255 
-118.552 -110.084 -1219 124 114 137 255 
-116.435 -110.084 -1219 125 118 142 255 
-113.849 -109.632 -1214 125 124 147 255 
-111.741 -109.632 -1214 125 123 151 255 
-109.632 -109.632 -1214 132 122 155 255 
-107.524 -109.632 -1214 140 118 151 255 
-105.068 -109.271 -1210 130 108 148 255 
-102.967 -109.271 -1210 121 102 148 255 
-100.866 -109.271 -1210 122 101 149 255 
-98.1112 -108.549 -1202 123 117 155 255 
-96.9824 -109.632 -1214 127 126 162 255 
-94.8741 -109.632 -1214 131 123 159 255 
-92.4601 -109.271 -1210 131 124 157 255 
-90.3588 -109.271 -1210 131 124 161 255 
-88.2574 -109.271 -1210 135 128 166 255 
-86.4408 -109.632 -1214 140 125 150 255 
-84.3325 -109.632 -1214 118 120 135 255 
-82.2242 -109.632 -1214 97 112 127 255 
-79.588 -108.91 -1206 87 84 120 255 
-78.0076 -109.632 -1214 78 90 118 255 
-75.8993 -109.632 -1214 84 88 117 255 
-73.791 -109.632 -1214 91 90 114 255 
-71.6827 -109.632 -1214 87 93 112 255 
-69.3451 -109.271 -1210 83 89 112 255 
-67.0214 -108.91 -1206 89 89 112 255 
-64.927 -108.91 -1206 95 87 110 255 
-62.6242 -108.549 -1202 94 90 109 255 
-60.5367 -108.549 -1202 94 85 105 255 
-58.4493 -108.549 -1202 92 80 102 255 
-56.3618 -108.549 -1202 91 74 98 255 
-54.2743 -108.549 -1202 88 71 95 255 
-52.1868 -108.549 -1202 86 70 94 255 
-50.0994 -108.549 -1202 82 73 94 255 
-48.0119 -108.549 -1202 79 70 93 255 
-45.9244 -108.549 -1202 82 72 92 255 
-43.8369 -108.549 -1202 86 73 90 255 
-41.7495 -108.549 -1202 82 78 89 255 
-39.662 -108.549 -1202 79 76 86 255 
-37.5745 -108.549 -1202 67 76 84 255 
-35.487 -108.549 -1202 55 72 82 255 
-33.3996 -108.549 -1202 65 69 80 255 
-31.3121 -108.549 -1202 76 59 75 255 
-29.3219 -108.91 -1206 75 53 70 255 
-27.2275 -108.91 -1206 74 47 64 255 
-25.133 -108.91 -1206 70 43 58 255 
-23.115 -109.271 -1210 67 43 46 255 
-21.0137 -109.271 -1210 67 46 34 255 
-18.9123 -109.271 -1210 68 47 43 255 
-16.7554 -108.91 -1206 68 47 52 255 
-14.6609 -108.91 -1206 68 48 52 255 
-12.5665 -108.91 -1206 65 47 52 255 
-10.4721 -108.91 -1206 62 47 50 255 
-8.37768 -108.91 -1206 62 47 48 255 
-6.3041 -109.271 -1210 63 48 48 255 
-4.18884 -108.91 -1206 58 47 49 255 
-2.10137 -109.271 -1210 54 44 56 255 
0 -109.271 -1210 55 44 63 255 
2.10831 -109.632 -1214 56 44 54 255 
4.21663 -109.632 -1214 54 46 46 255 
6.32494 -109.632 -1214 53 40 42 255 
8.46799 -110.084 -1219 50 34 39 255 
10.585 -110.084 -1219 47 30 33 255 
12.702 -110.084 -1219 40 32 28 255 
14.8676 -110.445 -1223 33 33 31 255 
16.9915 -110.445 -1223 41 30 35 255 
19.178 -110.806 -1227 49 27 28 255 
21.3089 -110.806 -1227 47 21 22 255 
23.5353 -111.258 -1232 45 25 19 255 
25.7582 -111.619 -1236 50 21 16 255 
27.9048 -111.619 -1236 56 48 34 255 
30.2701 -112.432 -1245 63 106 52 255 
32.5364 -112.793 -1249 70 109 46 255 
34.9834 -113.696 -1259 66 93 41 255 
37.1699 -113.696 -1259 63 63 35 255 
39.6377 -114.509 -1268 53 26 30 255 
42.1367 -115.322 -1277 44 24 18 255 
44.5281 -115.773 -1282 28 22 7 255 
46.7545 -115.773 -1282 12 22 11 255 
49.172 -116.225 -1287 23 24 15 255 
51.7666 -117.037 -1296 34 26 19 255 
54.2257 -117.489 -1301 43 28 24 255 
56.4851 -117.489 -1301 53 28 25 255 
58.7445 -117.489 -1301 48 31 27 255 
66.2781 -123.088 -1363 38 14 11 255 
68.6452 -123.088 -1363 32 13 10 255 
71.0123 -123.088 -1363 26 16 9 255 
73.3794 -123.088 -1363 21 14 8 255 
75.7465 -123.088 -1363 23 13 8 255 
78.1135 -123.088 -1363 25 12 8 255 
80.4806 -123.088 -1363 26 12 9 255 
82.8477 -123.088 -1363 27 13 12 255 
85.2148 -123.088 -1363 33 13 16 255 
87.2606 -122.636 -1358 40 19 18 255 
89.6189 -122.636 -1358 43 24 20 255 
91.571 -122.095 -1352 46 29 23 255 
94.3357 -122.636 -1358 42 31 26 255 
97.0501 -123.088 -1363 38 19 22 255 
99.4172 -123.088 -1363 63 5 19 255 
101.784 -123.088 -1363 89 59 62 255 
104.151 -123.088 -1363 127 122 106 255 
106.909 -123.54 -1368 166 122 104 255 
109.764 -124.081 -1374 164 121 102 255 
-189.245 -118 -1282 185 174 200 255 
-186.289 -117.539 -1277 153 147 153 255 
-182.774 -116.711 -1268 122 122 148 255 
-180.572 -116.711 -1268 127 114 144 255 
-177.666 -116.251 -1263 132 120 162 255 
-174.917 -115.883 -1259 134 123 180 255 
-172.731 -115.883 -1259 136 125 171 255 
-169.867 -115.422 -1254 133 123 162 255 
-167.689 -115.422 -1254 130 122 160 255 
-164.851 -114.962 -1249 128 120 159 255 
-162.161 -114.594 -1245 127 117 146 255 
-159.357 -114.134 -1240 130 112 134 255 
-156.696 -113.766 -1236 134 115 150 255 
-154.549 -113.766 -1236 131 125 167 255 
-151.91 -113.397 -1232 129 130 165 255 
-149.77 -113.397 -1232 129 122 163 255 
-147.631 -113.397 -1232 130 124 159 255 
-145.491 -113.397 -1232 129 124 156 255 
-143.351 -113.397 -1232 128 127 175 255 
-141.212 -113.397 -1232 145 151 194 255 
-138.508 -112.937 -1227 163 185 189 255 
-136.377 -112.937 -1227 140 143 185 255 
-134.246 -112.937 -1227 118 84 160 255 
-131.684 -112.569 -1223 112 99 135 255 
-129.137 -112.201 -1219 107 108 141 255 
-127.437 -112.569 -1223 118 118 148 255 
-124.903 -112.201 -1219 129 117 148 255 
-122.786 -112.201 -1219 128 123 149 255 
-120.669 -112.201 -1219 127 123 146 255 
-118.552 -112.201 -1219 129 123 143 255 
-115.957 -111.741 -1214 132 121 145 255 
-113.849 -111.741 -1214 129 121 147 255 
-111.372 -111.372 -1210 126 124 153 255 
-108.91 -111.004 -1206 130 125 160 255 
-106.815 -111.004 -1206 134 126 154 255 
-104.721 -111.004 -1206 125 114 148 255 
-102.627 -111.004 -1206 116 107 135 255 
-100.199 -110.636 -1202 114 99 122 255 
-98.1112 -110.636 -1202 113 111 142 255 
-96.3433 -111.004 -1206 124 121 163 255 
-94.5615 -111.372 -1210 136 122 159 255 
-92.4601 -111.372 -1210 133 122 155 255 
-90.0601 -111.004 -1206 130 122 164 255 
-88.2574 -111.372 -1210 126 119 174 255 
-86.156 -111.372 -1210 122 124 143 255 
-83.7768 -111.004 -1206 110 108 113 255 
-81.6824 -111.004 -1206 99 105 117 255 
-79.588 -111.004 -1206 92 92 121 255 
-77.2365 -110.636 -1202 85 89 116 255 
-75.149 -110.636 -1202 89 88 112 255 
-72.7577 -110.176 -1197 93 88 111 255 
-70.6789 -110.176 -1197 91 89 111 255 
-68.8866 -110.636 -1202 89 90 109 255 
-66.7991 -110.636 -1202 91 87 108 255 
-64.7117 -110.636 -1202 93 85 108 255 
-62.6242 -110.636 -1202 92 87 108 255 
-60.5367 -110.636 -1202 91 88 104 255 
-58.4493 -110.636 -1202 90 77 101 255 
-56.3618 -110.636 -1202 90 73 98 255 
-54.2743 -110.636 -1202 86 70 96 255 
-52.1868 -110.636 -1202 83 69 98 255 
-50.0994 -110.636 -1202 81 68 100 255 
-48.0119 -110.636 -1202 80 66 95 255 
-45.7334 -110.176 -1197 82 68 90 255 
-43.6546 -110.176 -1197 85 69 88 255 
-41.5758 -110.176 -1197 82 73 87 255 
-39.497 -110.176 -1197 79 75 86 255 
-37.4182 -110.176 -1197 72 73 85 255 
-35.3394 -110.176 -1197 66 71 83 255 
-33.2606 -110.176 -1197 73 66 82 255 
-31.3121 -110.636 -1202 80 59 79 255 
-29.2246 -110.636 -1202 77 56 76 255 
-27.1372 -110.636 -1202 74 54 71 255 
-25.0497 -110.636 -1202 72 49 67 255 
-22.9622 -110.636 -1202 70 49 60 255 
-20.9442 -111.004 -1206 68 49 53 255 
-18.8498 -111.004 -1206 66 52 55 255 
-16.6998 -110.636 -1202 67 53 58 255 
-14.6123 -110.636 -1202 68 56 57 255 
-12.5665 -111.004 -1206 65 54 56 255 
-10.4721 -111.004 -1206 63 56 55 255 
-8.37768 -111.004 -1206 63 54 54 255 
-6.28326 -111.004 -1206 63 54 53 255 
-4.17495 -110.636 -1202 60 50 53 255 
-2.08747 -110.636 -1202 58 47 62 255 
0 -111.004 -1206 58 44 72 255 
2.09442 -111.004 -1206 58 45 56 255 
4.20273 -111.372 -1210 56 42 41 255 
6.32494 -111.741 -1214 54 41 37 255 
8.43325 -111.741 -1214 51 31 33 255 
10.585 -112.201 -1219 48 29 29 255 
12.702 -112.201 -1219 44 32 26 255 
14.8676 -112.569 -1223 41 37 25 255 
16.9915 -112.569 -1223 47 31 24 255 
19.1155 -112.569 -1223 54 30 22 255 
21.3089 -112.937 -1227 48 27 21 255 
23.5353 -113.397 -1232 42 28 24 255 
25.7582 -113.766 -1236 49 24 27 255 
27.9951 -114.134 -1240 57 29 31 255 
30.2701 -114.594 -1245 68 85 35 255 
32.5364 -114.962 -1249 79 117 33 255 
34.8445 -115.422 -1254 73 86 32 255 
37.0223 -115.422 -1254 68 49 27 255 
39.3563 -115.883 -1259 56 33 22 255 
42.1367 -117.539 -1277 45 24 16 255 
44.5281 -118 -1282 33 23 10 255 
46.7545 -118 -1282 21 23 12 255 
49.172 -118.46 -1287 28 23 14 255 
51.7666 -119.288 -1296 36 24 20 255 
54.2257 -119.748 -1301 41 22 27 255 
56.4851 -119.748 -1301 47 21 32 255 
58.293 -118.828 -1291 44 26 37 255 
60.535 -118.828 -1291 41 19 24 255 
66.035 -124.995 -1358 35 16 11 255 
68.6452 -125.455 -1363 29 12 10 255 
71.0123 -125.455 -1363 21 13 9 255 
73.3794 -125.455 -1363 13 13 9 255 
75.7465 -125.455 -1363 18 13 9 255 
78.1135 -125.455 -1363 23 14 8 255 
80.1854 -124.995 -1358 26 14 7 255 
82.5438 -124.995 -1358 29 14 13 255 
84.9022 -124.995 -1358 35 16 19 255 
86.875 -124.443 -1352 42 20 18 255 
89.223 -124.443 -1352 44 26 18 255 
91.571 -124.443 -1352 46 31 22 255 
93.9189 -124.443 -1352 41 24 27 255 
96.6941 -124.995 -1358 36 9 30 255 
99.4172 -125.455 -1363 75 45 34 255 
101.784 -125.455 -1363 114 91 65 255 
104.151 -125.455 -1363 138 113 97 255 
106.909 -125.915 -1368 163 120 97 255 
110.164 -126.928 -1379 161 118 98 255 
-192.218 -120.695 -1287 218 233 223 255 
-189.245 -120.226 -1282 183 175 189 255 
-185.559 -119.288 -1272 153 140 155 255 
-182.774 -118.913 -1268 124 121 153 255 
-179.86 -118.444 -1263 128 107 152 255 
-177.104 -118.069 -1259 133 119 162 255 
-174.222 -117.6 -1254 137 126 172 255 
-172.045 -117.6 -1254 141 125 166 255 
-169.19 -117.131 -1249 136 123 160 255 
-167.02 -117.131 -1249 131 121 159 255 
-164.323 -116.756 -1245 129 119 159 255 
-162.161 -116.756 -1245 127 114 151 255 
-158.842 -115.912 -1236 132 102 144 255 
-156.696 -115.912 -1236 137 118 155 255 
-154.049 -115.537 -1232 133 130 166 255 
-151.91 -115.537 -1232 129 123 154 255 
-149.77 -115.537 -1232 129 112 142 255 
-147.031 -115.068 -1227 129 116 149 255 
-144.901 -115.068 -1227 124 123 156 255 
-142.77 -115.068 -1227 120 133 173 255 
-140.639 -115.068 -1227 143 157 190 255 
-138.056 -114.693 -1223 167 164 186 255 
-136.377 -115.068 -1227 138 143 183 255 
-133.808 -114.693 -1223 110 102 163 255 
-131.254 -114.318 -1219 117 111 143 255 
-129.137 -114.318 -1219 125 118 148 255 
-127.02 -114.318 -1219 130 134 154 255 
-124.903 -114.318 -1219 136 131 159 255 
-122.786 -114.318 -1219 133 134 165 255 
-120.669 -114.318 -1219 131 131 159 255 
-118.066 -113.849 -1214 135 134 153 255 
-115.957 -113.849 -1214 139 124 152 255 
-113.474 -113.474 -1210 133 116 151 255 
-111.372 -113.474 -1210 128 119 153 255 
-108.91 -113.099 -1206 128 128 156 255 
-106.815 -113.099 -1206 129 125 151 255 
-104.721 -113.099 -1206 120 117 146 255 
-102.627 -113.099 -1206 111 102 135 255 
-100.532 -113.099 -1206 107 79 125 255 
-98.4377 -113.099 -1206 103 100 141 255 
-96.6629 -113.474 -1210 122 126 158 255 
-94.5615 -113.474 -1210 142 125 152 255 
-92.4601 -113.474 -1210 135 123 146 255 
-90.3588 -113.474 -1210 129 112 146 255 
-88.2574 -113.474 -1210 116 104 146 255 
-85.8712 -113.099 -1206 104 97 130 255 
-83.7768 -113.099 -1206 102 85 115 255 
-81.6824 -113.099 -1206 101 92 116 255 
-79.324 -112.724 -1202 97 91 117 255 
-77.2365 -112.724 -1202 93 88 114 255 
-75.149 -112.724 -1202 94 91 112 255 
-73.0616 -112.724 -1202 95 87 110 255 
-70.9741 -112.724 -1202 95 87 109 255 
-68.8866 -112.724 -1202 95 86 107 255 
-66.7991 -112.724 -1202 93 85 106 255 
-64.7117 -112.724 -1202 91 85 105 255 
-62.6242 -112.724 -1202 89 87 104 255 
-60.5367 -112.724 -1202 88 80 100 255 
-58.4493 -112.724 -1202 88 71 96 255 
-56.1273 -112.255 -1197 89 70 95 255 
-54.2743 -112.724 -1202 85 70 95 255 
-52.1868 -112.724 -1202 81 68 96 255 
-49.891 -112.255 -1197 81 65 97 255 
-47.8122 -112.255 -1197 82 66 91 255 
-45.7334 -112.255 -1197 83 67 86 255 
-43.6546 -112.255 -1197 84 68 86 255 
-41.5758 -112.255 -1197 81 71 87 255 
-39.497 -112.255 -1197 79 70 85 255 
-37.4182 -112.255 -1197 78 72 84 255 
-35.3394 -112.255 -1197 77 67 82 255 
-33.2606 -112.255 -1197 81 65 81 255 
-31.3121 -112.724 -1202 85 61 78 255 
-29.2246 -112.724 -1202 79 61 76 255 
-27.1372 -112.724 -1202 74 55 75 255 
-25.0497 -112.724 -1202 74 54 75 255 
-22.9622 -112.724 -1202 74 50 67 255 
-20.8747 -112.724 -1202 69 51 59 255 
-18.7873 -112.724 -1202 64 53 60 255 
-16.6998 -112.724 -1202 66 57 61 255 
-14.6123 -112.724 -1202 69 56 59 255 
-12.5248 -112.724 -1202 66 60 58 255 
-10.4374 -112.724 -1202 64 58 58 255 
-8.34989 -112.724 -1202 63 59 58 255 
-6.26242 -112.724 -1202 63 54 55 255 
-4.17495 -112.724 -1202 62 53 53 255 
-2.08747 -112.724 -1202 62 46 56 255 
0 -112.724 -1202 61 42 60 255 
2.09442 -113.099 -1206 60 40 50 255 
4.20273 -113.474 -1210 57 39 40 255 
6.3041 -113.474 -1210 55 30 32 255 
8.43325 -113.849 -1214 52 21 24 255 
10.5416 -113.849 -1214 50 26 24 255 
12.6499 -113.849 -1214 49 32 25 255 
14.819 -114.318 -1219 49 31 23 255 
16.936 -114.318 -1219 54 29 22 255 
19.1155 -114.693 -1223 59 30 18 255 
21.2394 -114.693 -1223 49 29 15 255 
23.4398 -115.068 -1227 39 26 22 255 
25.7582 -115.912 -1236 48 21 29 255 
27.9951 -116.287 -1240 58 45 30 255 
30.2701 -116.756 -1245 73 91 31 255 
32.4323 -116.756 -1245 89 96 33 255 
34.7055 -117.131 -1249 81 86 35 255 
36.8746 -117.131 -1249 73 63 29 255 
39.2 -117.6 -1254 59 34 24 255 
41.6748 -118.444 -1263 46 26 16 255 
44.1808 -119.288 -1272 38 24 9 255 
46.5722 -119.757 -1277 30 22 12 255 
49.172 -120.695 -1287 34 25 15 255 
51.5668 -121.07 -1291 38 22 19 255 
53.8089 -121.07 -1291 40 18 23 255 
56.0509 -121.07 -1291 42 25 27 255 
58.1123 -120.695 -1287 40 33 31 255 
60.3474 -120.695 -1287 38 24 21 255 
62.3394 -120.226 -1282 32 20 12 255 
68.6452 -127.822 -1363 26 14 9 255 
71.0123 -127.822 -1363 15 12 6 255 
73.1102 -127.353 -1358 5 12 8 255 
75.4686 -127.353 -1358 13 13 10 255 
77.4831 -126.791 -1352 21 15 11 255 
79.8311 -126.791 -1352 26 16 12 255 
81.8751 -126.322 -1347 31 16 14 255 
84.2144 -126.322 -1347 38 17 17 255 
86.2324 -125.853 -1342 45 24 16 255 
88.563 -125.853 -1342 45 30 16 255 
91.2323 -126.322 -1347 46 32 17 255 
93.2243 -125.853 -1342 40 26 19 255 
95.5549 -125.853 -1342 34 30 31 255 
98.2502 -126.322 -1347 87 77 44 255 
100.963 -126.791 -1352 140 98 69 255 
103.311 -126.791 -1352 150 123 95 255 
106.128 -127.353 -1358 160 118 95 255 
-190.724 -121.975 -1277 198 188 200 255 
-188.506 -121.975 -1277 162 156 179 255 
-185.559 -121.497 -1272 142 130 158 255 
-182.053 -120.638 -1263 123 116 159 255 
-179.29 -120.255 -1259 127 120 161 255 
-176.4 -119.778 -1254 131 126 162 255 
-173.528 -119.3 -1249 133 126 164 255 
-171.359 -119.3 -1249 136 127 161 255 
-169.19 -119.3 -1249 134 124 159 255 
-166.486 -118.918 -1245 132 122 159 255 
-163.663 -118.441 -1240 128 121 160 255 
-160.989 -118.059 -1236 124 122 157 255 
-158.328 -117.677 -1232 126 113 154 255 
-156.189 -117.677 -1232 128 126 160 255 
-154.049 -117.677 -1232 118 117 166 255 
-151.293 -117.199 -1227 109 121 143 255 
-149.162 -117.199 -1227 113 102 121 255 
-147.031 -117.199 -1227 117 106 138 255 
-144.901 -117.199 -1227 130 115 156 255 
-142.304 -116.817 -1223 144 125 171 255 
-140.18 -116.817 -1223 164 165 187 255 
-137.605 -116.435 -1219 184 174 184 255 
-135.488 -116.435 -1219 148 143 182 255 
-133.371 -116.435 -1219 112 73 166 255 
-130.715 -115.957 -1214 120 104 151 255 
-128.607 -115.957 -1214 128 120 155 255 
-126.499 -115.957 -1214 135 133 160 255 
-124.39 -115.957 -1214 142 142 170 255 
-122.282 -115.957 -1214 133 135 181 255 
-120.174 -115.957 -1214 124 134 172 255 
-118.066 -115.957 -1214 128 130 164 255 
-115.575 -115.575 -1210 133 125 159 255 
-113.474 -115.575 -1210 129 114 155 255 
-111.372 -115.575 -1210 125 109 153 255 
-108.91 -115.193 -1206 127 122 152 255 
-106.815 -115.193 -1206 130 130 148 255 
-104.721 -115.193 -1206 117 118 145 255 
-102.627 -115.193 -1206 105 107 136 255 
-100.532 -115.193 -1206 102 89 128 255 
-98.4377 -115.193 -1206 100 85 140 255 
-96.6629 -115.575 -1210 107 107 153 255 
-94.5615 -115.575 -1210 115 132 145 255 
-92.4601 -115.575 -1210 111 111 137 255 
-90.3588 -115.575 -1210 107 101 128 255 
-87.9656 -115.193 -1206 102 90 119 255 
-85.5864 -114.811 -1202 98 77 118 255 
-83.4989 -114.811 -1202 97 84 118 255 
-81.4115 -114.811 -1202 96 87 115 255 
-79.324 -114.811 -1202 93 86 113 255 
-77.2365 -114.811 -1202 91 84 112 255 
-75.149 -114.811 -1202 92 84 112 255 
-73.0616 -114.811 -1202 93 83 109 255 
-70.9741 -114.811 -1202 95 82 107 255 
-68.8866 -114.811 -1202 98 82 106 255 
-66.7991 -114.811 -1202 92 83 105 255 
-64.7117 -114.811 -1202 86 85 102 255 
-62.6242 -114.811 -1202 85 82 100 255 
-60.5367 -114.811 -1202 84 77 96 255 
-58.4493 -114.811 -1202 85 72 92 255 
-56.1273 -114.333 -1197 86 68 93 255 
-54.0485 -114.333 -1197 82 71 95 255 
-51.9697 -114.333 -1197 78 72 95 255 
-49.891 -114.333 -1197 79 68 95 255 
-47.8122 -114.333 -1197 81 66 89 255 
-45.7334 -114.333 -1197 82 65 83 255 
-43.6546 -114.333 -1197 83 66 85 255 
-41.5758 -114.333 -1197 80 65 88 255 
-39.497 -114.333 -1197 77 66 85 255 
-37.4182 -114.333 -1197 73 64 83 255 
-35.3394 -114.333 -1197 69 63 81 255 
-33.2606 -114.333 -1197 74 62 80 255 
-31.1818 -114.333 -1197 79 59 78 255 
-29.2246 -114.811 -1202 75 57 76 255 
-27.1372 -114.811 -1202 72 55 79 255 
-24.9455 -114.333 -1197 74 52 83 255 
-22.8667 -114.333 -1197 76 50 74 255 
-20.7879 -114.333 -1197 68 52 65 255 
-18.7873 -114.811 -1202 60 55 65 255 
-16.6998 -114.811 -1202 66 54 65 255 
-14.6123 -114.811 -1202 73 55 63 255 
-12.5248 -114.811 -1202 68 56 61 255 
-10.4374 -114.811 -1202 64 59 62 255 
-8.34989 -114.811 -1202 67 56 63 255 
-6.26242 -114.811 -1202 71 53 58 255 
-4.15758 -114.333 -1197 67 49 54 255 
-2.07879 -114.333 -1197 64 45 51 255 
0 -114.811 -1202 62 40 49 255 
2.08747 -114.811 -1202 61 36 44 255 
4.18884 -115.193 -1206 57 31 39 255 
6.3041 -115.575 -1210 54 21 27 255 
8.40547 -115.575 -1210 50 21 16 255 
10.5068 -115.575 -1210 47 25 20 255 
12.6499 -115.957 -1214 48 28 24 255 
14.7582 -115.957 -1214 49 27 22 255 
16.8665 -115.957 -1214 51 28 20 255 
19.053 -116.435 -1219 54 33 14 255 
21.17 -116.435 -1219 47 31 9 255 
23.4398 -117.199 -1227 41 29 20 255 
25.6749 -117.677 -1232 50 30 32 255 
27.9048 -118.059 -1236 59 39 29 255 
30.1485 -118.441 -1240 71 76 27 255 
32.4323 -118.918 -1245 84 91 33 255 
34.5944 -118.918 -1245 78 93 39 255 
36.7565 -118.918 -1245 73 83 32 255 
39.0437 -119.3 -1249 61 42 26 255 
41.5428 -120.255 -1259 49 22 17 255 
44.3545 -121.975 -1277 39 21 9 255 
46.5722 -121.975 -1277 30 18 12 255 
49.172 -122.93 -1287 33 20 16 255 
51.4071 -122.93 -1287 36 23 17 255 
53.6422 -122.93 -1287 39 25 19 255 
55.8773 -122.93 -1287 42 31 22 255 
58.1123 -122.93 -1287 41 30 25 255 
60.3474 -122.93 -1287 40 26 19 255 
62.3394 -122.452 -1282 33 19 13 255 
68.3934 -129.712 -1358 26 14 8 255 
70.7518 -129.712 -1358 18 12 3 255 
73.1102 -129.712 -1358 10 13 7 255 
75.1351 -129.139 -1352 16 15 11 255 
77.4831 -129.139 -1352 22 18 14 255 
79.5359 -128.661 -1347 27 18 18 255 
81.8751 -128.661 -1347 33 19 17 255 
83.9018 -128.183 -1342 39 23 16 255 
86.2324 -128.183 -1342 46 33 15 255 
88.563 -128.183 -1342 46 36 14 255 
90.8937 -128.183 -1342 47 44 13 255 
93.2243 -128.183 -1342 42 26 12 255 
95.5549 -128.183 -1342 37 12 33 255 
98.2502 -128.661 -1347 91 69 54 255 
100.589 -128.661 -1347 145 101 74 255 
102.929 -128.661 -1347 150 113 94 255 
-193.697 -124.679 -1282 216 183 212 255 
-190.724 -124.193 -1277 178 120 181 255 
-187.768 -123.706 -1272 141 142 171 255 
-184.976 -123.317 -1268 131 111 162 255 
-181.476 -122.442 -1259 122 117 162 255 
-178.578 -121.956 -1254 126 131 162 255 
-176.4 -121.956 -1254 130 129 162 255 
-173.528 -121.469 -1249 131 128 163 255 
-171.359 -121.469 -1249 132 125 161 255 
-168.648 -121.08 -1245 133 126 159 255 
-166.486 -121.08 -1245 134 123 163 255 
-163.136 -120.205 -1236 128 123 168 255 
-160.468 -119.816 -1232 122 116 155 255 
-158.328 -119.816 -1232 121 102 143 255 
-155.555 -119.33 -1227 120 106 147 255 
-153.424 -119.33 -1227 105 93 151 255 
-151.293 -119.33 -1227 90 92 130 255 
-149.162 -119.33 -1227 97 72 109 255 
-146.552 -118.941 -1223 105 100 145 255 
-144.428 -118.941 -1223 136 108 181 255 
-142.304 -118.941 -1223 168 154 197 255 
-140.18 -118.941 -1223 185 207 214 255 
-138.056 -118.941 -1223 202 190 201 255 
-134.932 -118.066 -1214 158 186 188 255 
-132.824 -118.066 -1214 114 93 170 255 
-130.715 -118.066 -1214 123 115 153 255 
-128.607 -118.066 -1214 132 126 158 255 
-126.499 -118.066 -1214 140 137 163 255 
-124.39 -118.066 -1214 148 136 168 255 
-122.282 -118.066 -1214 132 132 174 255 
-119.778 -117.677 -1210 117 130 168 255 
-117.677 -117.677 -1210 122 128 162 255 
-115.193 -117.288 -1206 127 121 159 255 
-113.099 -117.288 -1206 125 109 157 255 
-111.372 -117.677 -1210 123 117 155 255 
-108.91 -117.288 -1206 127 123 153 255 
-106.815 -117.288 -1206 132 126 153 255 
-104.721 -117.288 -1206 116 119 154 255 
-102.627 -117.288 -1206 100 98 137 255 
-100.532 -117.288 -1206 98 85 121 255 
-98.4377 -117.288 -1206 97 86 126 255 
-96.3433 -117.288 -1206 92 89 131 255 
-93.9363 -116.899 -1202 88 98 126 255 
-92.1545 -117.288 -1206 87 92 122 255 
-90.0601 -117.288 -1206 86 89 118 255 
-87.9656 -117.288 -1206 89 80 115 255 
-85.5864 -116.899 -1202 93 82 114 255 
-83.4989 -116.899 -1202 92 88 114 255 
-81.4115 -116.899 -1202 91 83 112 255 
-79.324 -116.899 -1202 90 83 111 255 
-76.9152 -116.412 -1197 90 82 110 255 
-74.8364 -116.412 -1197 91 82 109 255 
-72.7577 -116.412 -1197 92 80 106 255 
-70.6789 -116.412 -1197 97 79 104 255 
-68.6001 -116.412 -1197 102 79 102 255 
-66.7991 -116.899 -1202 92 81 101 255 
-64.4425 -116.412 -1197 82 81 99 255 
-62.3637 -116.412 -1197 81 81 97 255 
-60.2849 -116.412 -1197 81 75 95 255 
-58.2061 -116.412 -1197 82 74 94 255 
-56.1273 -116.412 -1197 83 72 96 255 
-54.0485 -116.412 -1197 79 75 99 255 
-51.9697 -116.412 -1197 76 71 95 255 
-49.891 -116.412 -1197 78 69 92 255 
-47.8122 -116.412 -1197 81 66 88 255 
-45.7334 -116.412 -1197 81 64 85 255 
-43.6546 -116.412 -1197 82 62 87 255 
-41.5758 -116.412 -1197 78 60 90 255 
-39.497 -116.412 -1197 75 60 86 255 
-37.4182 -116.412 -1197 68 59 82 255 
-35.3394 -116.412 -1197 62 61 80 255 
-33.2606 -116.412 -1197 68 62 78 255 
-31.1818 -116.412 -1197 74 57 77 255 
-29.1031 -116.412 -1197 72 54 76 255 
-27.0243 -116.412 -1197 71 53 77 255 
-24.9455 -116.412 -1197 75 53 78 255 
-22.8667 -116.412 -1197 79 50 72 255 
-20.7879 -116.412 -1197 67 53 67 255 
-18.7091 -116.412 -1197 56 51 68 255 
-16.6303 -116.412 -1197 66 51 70 255 
-14.5515 -116.412 -1197 77 53 67 255 
-12.4727 -116.412 -1197 71 53 64 255 
-10.4374 -116.899 -1202 65 54 68 255 
-8.34989 -116.899 -1202 72 55 73 255 
-6.26242 -116.899 -1202 79 50 63 255 
-4.15758 -116.412 -1197 73 45 54 255 
-2.07879 -116.412 -1197 67 43 48 255 
0 -116.412 -1197 65 41 43 255 
2.08747 -116.899 -1202 63 34 37 255 
4.18884 -117.288 -1206 58 30 32 255 
6.28326 -117.288 -1206 53 25 26 255 
8.40547 -117.677 -1210 49 20 20 255 
10.5068 -117.677 -1210 45 25 22 255 
12.6082 -117.677 -1210 47 29 24 255 
14.7582 -118.066 -1214 50 26 23 255 
16.8665 -118.066 -1214 50 24 23 255 
19.053 -118.552 -1219 50 31 18 255 
21.2394 -118.941 -1223 47 36 14 255 
23.4398 -119.33 -1227 44 33 21 255 
25.6749 -119.816 -1232 52 31 29 255 
27.9048 -120.205 -1236 60 45 30 255 
30.1485 -120.594 -1240 69 85 32 255 
32.4323 -121.08 -1245 79 98 34 255 
34.5944 -121.08 -1245 76 115 37 255 
36.7565 -121.08 -1245 74 79 32 255 
39.0437 -121.469 -1249 63 32 27 255 
41.5428 -122.442 -1259 53 24 18 255 
44.3545 -124.193 -1277 42 21 10 255 
46.5722 -124.193 -1277 31 18 12 255 
49.172 -125.165 -1287 32 18 14 255 
51.4071 -125.165 -1287 34 24 15 255 
53.6422 -125.165 -1287 38 30 16 255 
55.8773 -125.165 -1287 43 31 25 255 
58.1123 -125.165 -1287 42 34 35 255 
60.3474 -125.165 -1287 42 25 25 255 
62.3394 -124.679 -1282 34 17 16 255 
64.5658 -124.679 -1282 26 13 10 255 
70.4392 -131.487 -1352 20 13 5 255 
72.7872 -131.487 -1352 15 15 7 255 
74.8573 -131 -1347 19 17 10 255 
77.1966 -131 -1347 24 21 13 255 
79.2406 -130.514 -1342 30 20 17 255 
81.5712 -130.514 -1342 36 24 17 255 
83.9018 -130.514 -1342 41 26 18 255 
85.8469 -129.93 -1336 47 34 18 255 
88.563 -130.514 -1342 48 39 19 255 
90.8937 -130.514 -1342 49 36 14 255 
93.2243 -130.514 -1342 45 25 10 255 
95.5549 -130.514 -1342 41 36 38 255 
97.8855 -130.514 -1342 95 88 66 255 
100.216 -130.514 -1342 150 104 77 255 
-192.942 -126.41 -1277 161 117 204 255 
-189.977 -125.915 -1272 149 146 163 255 
-187.178 -125.519 -1268 137 184 165 255 
-184.976 -125.519 -1268 130 132 167 255 
-181.476 -124.628 -1259 123 113 165 255 
-178.578 -124.133 -1254 124 123 163 255 
-175.697 -123.639 -1249 126 133 162 255 
-173.528 -123.639 -1249 127 124 162 255 
-170.81 -123.243 -1245 128 120 161 255 
-167.97 -122.748 -1240 133 122 160 255 
-165.817 -122.748 -1240 138 123 168 255 
-163.136 -122.352 -1236 124 123 176 255 
-160.468 -121.956 -1232 110 120 154 255 
-157.686 -121.461 -1227 111 91 132 255 
-155.048 -121.065 -1223 113 105 134 255 
-152.924 -121.065 -1223 103 96 136 255 
-150.8 -121.065 -1223 93 85 117 255 
-148.676 -121.065 -1223 111 86 98 255 
-146.073 -120.669 -1219 130 115 152 255 
-143.956 -120.669 -1219 156 147 206 255 
-141.839 -120.669 -1219 182 179 223 255 
-139.722 -120.669 -1219 188 190 241 255 
-137.04 -120.174 -1214 194 195 217 255 
-132.386 -119.778 -1210 106 2 174 255 
-130.285 -119.778 -1210 120 89 155 255 
-128.607 -120.174 -1214 134 135 161 255 
-126.082 -119.778 -1210 138 134 167 255 
-123.981 -119.778 -1210 143 134 167 255 
-121.879 -119.778 -1210 134 134 167 255 
-119.778 -119.778 -1210 125 129 163 255 
-117.288 -119.382 -1206 126 127 160 255 
-115.193 -119.382 -1206 128 123 159 255 
-113.099 -119.382 -1206 130 122 159 255 
-111.372 -119.778 -1210 133 128 157 255 
-108.91 -119.382 -1206 133 134 155 255 
-106.815 -119.382 -1206 134 134 159 255 
-104.721 -119.382 -1206 115 106 163 255 
-102.627 -119.382 -1206 97 83 138 255 
-100.532 -119.382 -1206 98 84 114 255 
-98.4377 -119.382 -1206 99 87 112 255 
-96.3433 -119.382 -1206 96 86 110 255 
-94.2489 -119.382 -1206 93 82 109 255 
-91.8488 -118.986 -1202 93 85 108 255 
-90.0601 -119.382 -1206 93 83 110 255 
-87.6739 -118.986 -1202 92 82 112 255 
-85.5864 -118.986 -1202 91 85 111 255 
-83.4989 -118.986 -1202 89 83 110 255 
-81.4115 -118.986 -1202 88 78 109 255 
-79.324 -118.986 -1202 87 79 109 255 
-76.9152 -118.491 -1197 87 80 107 255 
-74.8364 -118.491 -1197 88 78 106 255 
-72.7577 -118.491 -1197 90 77 104 255 
-70.6789 -118.491 -1197 91 76 102 255 
-68.6001 -118.491 -1197 93 76 99 255 
-66.5213 -118.491 -1197 86 76 97 255 
-64.4425 -118.491 -1197 80 79 96 255 
-62.3637 -118.491 -1197 78 76 95 255 
-60.2849 -118.491 -1197 76 71 96 255 
-58.2061 -118.491 -1197 79 71 97 255 
-56.1273 -118.491 -1197 82 72 100 255 
-54.0485 -118.491 -1197 82 71 103 255 
-51.9697 -118.491 -1197 83 71 96 255 
-49.891 -118.491 -1197 82 68 90 255 
-47.8122 -118.491 -1197 82 68 88 255 
-45.5806 -118.095 -1193 82 64 87 255 
-43.5087 -118.095 -1193 83 60 90 255 
-41.5758 -118.491 -1197 79 59 93 255 
-39.497 -118.491 -1197 75 59 87 255 
-37.4182 -118.491 -1197 71 59 81 255 
-35.3394 -118.491 -1197 67 62 78 255 
-33.2606 -118.491 -1197 74 58 76 255 
-31.1818 -118.491 -1197 81 54 76 255 
-29.1031 -118.491 -1197 76 52 76 255 
-27.0243 -118.491 -1197 71 53 75 255 
-24.9455 -118.491 -1197 72 49 74 255 
-22.7903 -118.095 -1193 74 46 71 255 
-20.7184 -118.095 -1193 67 46 69 255 
-18.7091 -118.491 -1197 60 46 72 255 
-16.6303 -118.491 -1197 66 49 75 255 
-14.5515 -118.491 -1197 72 53 71 255 
-12.4727 -118.491 -1197 68 50 67 255 
-10.3939 -118.491 -1197 64 51 75 255 
-8.31516 -118.491 -1197 65 51 83 255 
-6.26242 -118.986 -1202 66 49 68 255 
-4.15758 -118.491 -1197 65 45 54 255 
-2.07879 -118.491 -1197 64 42 45 255 
0 -118.491 -1197 61 36 37 255 
2.08747 -118.986 -1202 59 33 31 255 
4.18884 -119.382 -1206 55 30 26 255 
6.28326 -119.382 -1206 52 30 25 255 
8.37768 -119.382 -1206 48 27 24 255 
10.5068 -119.778 -1210 45 30 24 255 
12.6082 -119.778 -1210 51 26 25 255 
14.7096 -119.778 -1210 58 25 26 255 
16.8665 -120.174 -1214 52 26 27 255 
19.053 -120.669 -1219 47 31 23 255 
21.17 -120.669 -1219 45 35 20 255 
23.4398 -121.461 -1227 44 39 23 255 
25.5707 -121.461 -1227 51 31 26 255 
27.8145 -121.956 -1232 59 26 32 255 
30.0513 -122.352 -1236 67 66 38 255 
32.302 -122.748 -1240 76 101 37 255 
34.5944 -123.243 -1245 74 106 36 255 
36.7565 -123.243 -1245 72 89 32 255 
39.0437 -123.639 -1249 62 46 29 255 
41.5428 -124.628 -1259 53 25 20 255 
44.1808 -125.915 -1272 38 20 12 255 
46.7545 -126.905 -1282 24 19 12 255 
48.9809 -126.905 -1282 29 20 12 255 
51.2074 -126.905 -1282 35 26 13 255 
53.6422 -127.4 -1287 39 27 14 255 
55.8773 -127.4 -1287 44 30 29 255 
58.1123 -127.4 -1287 46 27 45 255 
60.3474 -127.4 -1287 49 26 32 255 
62.5825 -127.4 -1287 38 16 19 255 
64.8176 -127.4 -1287 27 11 13 255 
69.9182 -132.845 -1342 22 12 7 255 
72.518 -133.34 -1347 17 17 8 255 
74.5794 -132.845 -1342 22 21 9 255 
76.91 -132.845 -1342 27 30 12 255 
79.2406 -132.845 -1342 33 28 16 255 
81.5712 -132.845 -1342 39 34 18 255 
83.5267 -132.251 -1336 49 36 21 255 
85.8469 -132.251 -1336 59 39 23 255 
88.1671 -132.251 -1336 55 39 25 255 
90.8937 -132.845 -1342 52 38 17 255 
93.2243 -132.845 -1342 50 28 9 255 
95.5549 -132.845 -1342 48 22 44 255 
97.8855 -132.845 -1342 99 82 79 255 
100.216 -132.845 -1342 150 115 80 255 
102.547 -132.845 -1342 149 107 82 255 
-192.942 -128.628 -1277 106 148 199 255 
-189.977 -128.124 -1272 120 164 168 255 
-187.178 -127.721 -1268 134 154 163 255 
-183.663 -126.815 -1259 129 123 158 255 
-180.756 -126.311 -1254 124 114 159 255 
-177.866 -125.808 -1249 123 115 161 255 
-175.134 -125.405 -1245 122 119 161 255 
-172.972 -125.405 -1245 123 117 161 255 
-170.124 -124.901 -1240 125 120 160 255 
-167.429 -124.498 -1236 134 121 159 255 
-165.282 -124.498 -1236 143 126 164 255 
-162.608 -124.095 -1232 120 129 169 255 
-160.468 -124.095 -1232 98 94 141 255 
-157.686 -123.592 -1227 102 40 114 255 
-155.048 -123.189 -1223 107 83 127 255 
-152.924 -123.189 -1223 101 104 141 255 
-150.8 -123.189 -1223 96 89 138 255 
-148.676 -123.189 -1223 126 73 136 255 
-146.073 -122.786 -1219 156 140 180 255 
-143.956 -122.786 -1219 176 187 224 255 
-141.839 -122.786 -1219 197 184 231 255 
-139.149 -122.282 -1214 192 182 238 255 
-137.04 -122.282 -1214 187 160 201 255 
-132.386 -121.879 -1210 99 65 162 255 
-130.285 -121.879 -1210 118 106 161 255 
-128.183 -121.879 -1210 137 126 165 255 
-125.665 -121.476 -1206 138 132 170 255 
-123.981 -121.879 -1210 139 140 175 255 
-121.476 -121.476 -1206 136 142 180 255 
-119.778 -121.879 -1210 134 133 168 255 
-117.288 -121.476 -1206 132 129 157 255 
-115.193 -121.476 -1206 130 127 162 255 
-113.099 -121.476 -1206 136 132 167 255 
-111.372 -121.879 -1210 143 139 161 255 
-108.91 -121.476 -1206 139 152 156 255 
-106.815 -121.476 -1206 136 118 146 255 
-104.721 -121.476 -1206 115 90 136 255 
-102.627 -121.476 -1206 94 84 126 255 
-100.532 -121.476 -1206 98 82 116 255 
-98.4377 -121.476 -1206 102 85 114 255 
-96.0238 -121.073 -1202 100 89 113 255 
-93.9363 -121.073 -1202 98 84 112 255 
-91.8488 -121.073 -1202 99 86 111 255 
-89.7614 -121.073 -1202 100 84 111 255 
-87.6739 -121.073 -1202 95 82 111 255 
-85.5864 -121.073 -1202 90 82 109 255 
-83.4989 -121.073 -1202 87 83 107 255 
-81.4115 -121.073 -1202 85 79 107 255 
-79.324 -121.073 -1202 85 77 107 255 
-76.9152 -120.57 -1197 85 78 104 255 
-74.8364 -120.57 -1197 86 77 102 255 
-72.7577 -120.57 -1197 88 75 101 255 
-70.6789 -120.57 -1197 86 73 100 255 
-68.6001 -120.57 -1197 84 71 97 255 
-66.5213 -120.57 -1197 81 72 95 255 
-64.4425 -120.57 -1197 79 72 93 255 
-62.3637 -120.57 -1197 75 73 92 255 
-60.2849 -120.57 -1197 71 70 93 255 
-58.2061 -120.57 -1197 76 68 94 255 
-56.1273 -120.57 -1197 82 68 95 255 
-54.0485 -120.57 -1197 86 68 97 255 
-51.9697 -120.57 -1197 91 67 93 255 
-49.891 -120.57 -1197 87 67 89 255 
-47.8122 -120.57 -1197 83 66 88 255 
-45.5806 -120.167 -1193 83 64 87 255 
-43.5087 -120.167 -1193 84 62 88 255 
-41.5758 -120.57 -1197 80 58 89 255 
-39.497 -120.57 -1197 76 59 83 255 
-37.4182 -120.57 -1197 74 59 78 255 
-35.3394 -120.57 -1197 73 57 78 255 
-33.1495 -120.167 -1193 80 56 78 255 
-31.1818 -120.57 -1197 88 52 77 255 
-29.0058 -120.167 -1193 80 50 76 255 
-26.934 -120.167 -1193 72 48 74 255 
-24.8621 -120.167 -1193 70 46 73 255 
-22.7903 -120.167 -1193 69 42 72 255 
-20.7184 -120.167 -1193 67 39 71 255 
-18.6466 -120.167 -1193 65 44 74 255 
-16.5747 -120.167 -1193 66 50 77 255 
-14.5029 -120.167 -1193 68 48 71 255 
-12.4727 -120.57 -1197 66 43 66 255 
-10.3939 -120.57 -1197 64 47 70 255 
-8.31516 -120.57 -1197 59 50 75 255 
-6.23637 -120.57 -1197 54 48 65 255 
-4.15758 -120.57 -1197 58 46 55 255 
-2.07879 -120.57 -1197 62 38 47 255 
0 -120.57 -1197 58 30 40 255 
2.08747 -121.073 -1202 55 29 33 255 
4.17495 -121.073 -1202 53 30 26 255 
6.28326 -121.476 -1206 51 29 26 255 
8.37768 -121.476 -1206 48 29 27 255 
10.5068 -121.879 -1210 45 26 26 255 
12.6082 -121.879 -1210 55 24 26 255 
14.7096 -121.879 -1210 66 25 25 255 
16.8665 -122.282 -1214 55 24 24 255 
18.9748 -122.282 -1214 44 30 21 255 
21.17 -122.786 -1219 44 36 19 255 
23.3634 -123.189 -1223 44 34 17 255 
25.5707 -123.592 -1227 51 32 16 255 
27.8145 -124.095 -1232 58 36 28 255 
29.954 -124.095 -1232 65 56 41 255 
32.1978 -124.498 -1236 73 96 42 255 
34.4555 -124.901 -1240 72 120 44 255 
36.6089 -124.901 -1240 71 91 43 255 
39.2 -126.311 -1254 62 38 43 255 
44.0419 -127.721 -1268 35 18 8 255 
46.7545 -129.132 -1282 17 18 11 255 
48.9809 -129.132 -1282 27 20 14 255 
51.2074 -129.132 -1282 37 23 16 255 
53.4338 -129.132 -1282 41 24 18 255 
55.6602 -129.132 -1282 45 23 30 255 
57.8866 -129.132 -1282 50 21 42 255 
60.113 -129.132 -1282 56 18 31 255 
62.5825 -129.635 -1287 42 12 20 255 
64.8176 -129.635 -1287 28 9 12 255 
67.0527 -129.635 -1287 23 9 4 255 
72.2488 -135.175 -1342 19 15 6 255 
74.5794 -135.175 -1342 25 21 9 255 
76.5662 -134.571 -1336 31 24 14 255 
78.8863 -134.571 -1336 36 29 19 255 
81.2065 -134.571 -1336 42 34 21 255 
83.2141 -134.067 -1331 57 46 23 255 
85.5256 -134.067 -1331 72 42 29 255 
88.1671 -134.571 -1336 63 44 36 255 
90.4873 -134.571 -1336 55 37 22 255 
92.8075 -134.571 -1336 55 30 9 255 
95.5549 -135.175 -1342 55 45 45 255 
97.8855 -135.175 -1342 103 107 81 255 
100.216 -135.175 -1342 151 107 80 255 
-192.186 -130.333 -1272 110 84 194 255 
-189.38 -129.924 -1268 119 133 173 255 
-186.44 -129.411 -1263 129 146 161 255 
-182.934 -128.489 -1254 125 115 150 255 
-180.035 -127.977 -1249 121 108 154 255 
-177.296 -127.567 -1245 120 111 159 255 
-174.431 -127.055 -1240 120 114 160 255 
-172.277 -127.055 -1240 122 118 161 255 
-170.124 -127.055 -1240 124 123 160 255 
-167.429 -126.645 -1236 130 125 159 255 
-164.747 -126.235 -1232 137 134 161 255 
-161.948 -125.723 -1227 118 115 163 255 
-159.817 -125.723 -1227 99 88 130 255 
-157.686 -125.723 -1227 103 70 97 255 
-155.048 -125.313 -1223 108 86 121 255 
-152.924 -125.313 -1223 103 98 146 255 
-150.307 -124.903 -1219 99 95 160 255 
-148.19 -124.903 -1219 127 125 174 255 
-146.073 -124.903 -1219 155 188 208 255 
-143.956 -124.903 -1219 180 192 243 255 
-141.257 -124.39 -1214 205 192 239 255 
-139.149 -124.39 -1214 187 179 236 255 
-136.589 -123.981 -1210 169 172 185 255 
-131.948 -123.571 -1206 96 62 151 255 
-129.854 -123.571 -1206 120 102 168 255 
-128.183 -123.981 -1210 145 133 171 255 
-125.665 -123.571 -1206 150 143 174 255 
-123.571 -123.571 -1206 156 153 183 255 
-121.476 -123.571 -1206 145 148 193 255 
-119.382 -123.571 -1206 135 136 174 255 
-117.288 -123.571 -1206 126 128 155 255 
-115.193 -123.571 -1206 118 127 165 255 
-113.099 -123.571 -1206 119 130 176 255 
-111.372 -123.981 -1210 121 146 166 255 
-108.91 -123.571 -1206 115 122 157 255 
-106.815 -123.571 -1206 110 99 133 255 
-104.721 -123.571 -1206 101 89 109 255 
-102.627 -123.571 -1206 92 84 114 255 
-100.532 -123.571 -1206 95 84 119 255 
-98.4377 -123.571 -1206 99 84 117 255 
-96.0238 -123.161 -1202 97 83 116 255 
-93.9363 -123.161 -1202 96 81 115 255 
-91.8488 -123.161 -1202 95 83 114 255 
-89.7614 -123.161 -1202 94 85 112 255 
-87.6739 -123.161 -1202 91 82 110 255 
-85.5864 -123.161 -1202 88 80 107 255 
-83.1516 -122.649 -1197 86 80 105 255 
-81.0728 -122.649 -1197 84 79 105 255 
-78.994 -122.649 -1197 82 78 105 255 
-76.9152 -122.649 -1197 80 79 101 255 
-74.8364 -122.649 -1197 85 76 98 255 
-72.7577 -122.649 -1197 91 74 98 255 
-70.6789 -122.649 -1197 87 68 99 255 
-68.6001 -122.649 -1197 83 65 96 255 
-66.5213 -122.649 -1197 81 67 93 255 
-64.4425 -122.649 -1197 80 67 91 255 
-62.3637 -122.649 -1197 77 69 89 255 
-60.2849 -122.649 -1197 74 69 90 255 
-58.2061 -122.649 -1197 77 66 91 255 
-56.1273 -122.649 -1197 80 64 91 255 
-54.0485 -122.649 -1197 83 63 92 255 
-51.7961 -122.239 -1193 86 63 90 255 
-49.7242 -122.239 -1193 81 63 89 255 
-47.6524 -122.239 -1193 76 66 88 255 
-45.5806 -122.239 -1193 82 65 87 255 
-43.5087 -122.239 -1193 88 67 86 255 
-41.4369 -122.239 -1193 78 63 85 255 
-39.365 -122.239 -1193 68 61 80 255 
-37.2932 -122.239 -1193 69 58 76 255 
-35.2213 -122.239 -1193 70 54 78 255 
-33.1495 -122.239 -1193 76 51 80 255 
-31.0777 -122.239 -1193 82 49 78 255 
-29.0058 -122.239 -1193 75 47 77 255 
-26.934 -122.239 -1193 68 44 74 255 
-24.7788 -121.829 -1189 67 43 72 255 
-22.7139 -121.829 -1189 66 41 72 255 
-20.649 -121.829 -1189 65 40 73 255 
-18.5841 -121.829 -1189 64 42 76 255 
-16.5192 -121.829 -1189 65 47 80 255 
-14.5029 -122.239 -1193 66 50 73 255 
-12.4311 -122.239 -1193 68 47 66 255 
-10.3939 -122.649 -1197 70 46 66 255 
-8.31516 -122.649 -1197 58 47 67 255 
-6.23637 -122.649 -1197 47 49 61 255 
-4.14369 -122.239 -1193 51 44 56 255 
-2.07184 -122.239 -1193 56 37 50 255 
0 -122.649 -1197 55 30 44 255 
2.07879 -122.649 -1197 54 25 35 255 
4.17495 -123.161 -1202 52 29 26 255 
6.26242 -123.161 -1202 50 31 28 255 
8.34989 -123.161 -1202 46 28 31 255 
10.4721 -123.571 -1206 43 25 29 255 
12.6082 -123.981 -1210 49 24 27 255 
14.7096 -123.981 -1210 55 27 24 255 
16.8109 -123.981 -1210 45 27 22 255 
18.9748 -124.39 -1214 36 31 20 255 
21.17 -124.903 -1219 40 33 18 255 
23.3634 -125.313 -1223 45 32 12 255 
25.5707 -125.723 -1227 53 31 7 255 
27.8145 -126.235 -1232 61 31 26 255 
29.954 -126.235 -1232 64 56 45 255 
32.1978 -126.645 -1236 67 109 48 255 
34.4555 -127.055 -1240 74 124 52 255 
36.6089 -127.055 -1240 82 120 54 255 
39.2 -128.489 -1254 67 62 57 255 
41.5428 -129.001 -1259 52 12 30 255 
44.0419 -129.924 -1268 39 12 4 255 
46.5722 -130.846 -1277 26 16 10 255 
48.7899 -130.846 -1277 31 19 16 255 
51.2074 -131.358 -1282 36 24 19 255 
53.4338 -131.358 -1282 39 22 23 255 
55.6602 -131.358 -1282 43 20 31 255 
57.8866 -131.358 -1282 47 19 39 255 
60.113 -131.358 -1282 51 17 30 255 
62.3394 -131.358 -1282 42 11 21 255 
64.8176 -131.87 -1287 33 6 11 255 
67.2611 -132.28 -1291 27 10 1 255 
71.9258 -136.891 -1336 22 16 5 255 
74.246 -136.891 -1336 27 17 10 255 
76.2796 -136.379 -1331 32 16 16 255 
78.5911 -136.379 -1331 37 22 22 255 
80.9026 -136.379 -1331 42 28 24 255 
83.2141 -136.379 -1331 52 37 26 255 
85.5256 -136.379 -1331 62 42 37 255 
88.1671 -136.891 -1336 51 40 48 255 
90.4873 -136.891 -1336 40 37 28 255 
92.8075 -136.891 -1336 43 28 9 255 
95.1277 -136.891 -1336 46 24 46 255 
97.4478 -136.891 -1336 97 84 84 255 
99.0213 -135.866 -1326 149 105 80 255 
-191.582 -132.126 -1268 114 118 172 255 
-188.633 -131.605 -1263 119 138 159 255 
-185.849 -131.188 -1259 125 117 153 255 
-182.204 -130.146 -1249 122 86 148 255 
-180.035 -130.146 -1249 119 100 152 255 
-176.584 -129.208 -1240 118 109 156 255 
-174.431 -129.208 -1240 118 112 157 255 
-171.722 -128.791 -1236 120 119 158 255 
-169.575 -128.791 -1236 123 120 159 255 
-167.429 -128.791 -1236 127 125 160 255 
-164.747 -128.374 -1232 132 120 148 255 
-161.948 -127.853 -1227 116 110 137 255 
-159.817 -127.853 -1227 101 87 116 255 
-157.172 -127.437 -1223 105 66 96 255 
-155.048 -127.437 -1223 109 85 121 255 
-152.424 -127.02 -1219 106 110 147 255 
-150.307 -127.02 -1219 103 118 166 255 
-147.582 -126.499 -1214 129 145 186 255 
-145.474 -126.499 -1214 155 176 213 255 
-143.365 -126.499 -1214 184 203 240 255 
-141.257 -126.499 -1214 213 194 226 255 
-138.69 -126.082 -1210 182 172 213 255 
-136.589 -126.082 -1210 151 135 175 255 
-133.598 -125.248 -1202 122 44 138 255 
-132.386 -126.082 -1210 94 76 153 255 
-130.285 -126.082 -1210 123 109 169 255 
-127.76 -125.665 -1206 153 140 181 255 
-125.665 -125.665 -1206 163 156 193 255 
-123.571 -125.665 -1206 173 163 196 255 
-121.476 -125.665 -1206 154 165 200 255 
-119.382 -125.665 -1206 136 136 176 255 
-117.288 -125.665 -1206 121 122 152 255 
-115.193 -125.665 -1206 107 112 153 255 
-113.099 -125.665 -1206 103 117 155 255 
-110.636 -125.248 -1202 100 109 144 255 
-108.91 -125.665 -1206 92 95 133 255 
-106.815 -125.665 -1206 84 91 122 255 
-104.721 -125.665 -1206 87 87 111 255 
-102.286 -125.248 -1202 91 85 114 255 
-100.532 -125.665 -1206 94 87 117 255 
-98.4377 -125.665 -1206 97 83 115 255 
-96.0238 -125.248 -1202 95 82 113 255 
-93.9363 -125.248 -1202 94 81 111 255 
-91.8488 -125.248 -1202 91 83 110 255 
-89.7614 -125.248 -1202 88 82 108 255 
-87.6739 -125.248 -1202 87 83 106 255 
-85.2304 -124.727 -1197 86 80 103 255 
-83.1516 -124.727 -1197 84 79 101 255 
-81.0728 -124.727 -1197 83 78 100 255 
-78.994 -124.727 -1197 79 79 100 255 
-76.9152 -124.727 -1197 76 77 98 255 
-74.8364 -124.727 -1197 85 77 96 255 
-72.7577 -124.727 -1197 95 70 96 255 
-70.6789 -124.727 -1197 88 63 96 255 
-68.6001 -124.727 -1197 82 63 95 255 
-66.5213 -124.727 -1197 81 64 94 255 
-64.4425 -124.727 -1197 81 66 92 255 
-62.1553 -124.311 -1193 79 69 90 255 
-60.0835 -124.311 -1193 78 66 90 255 
-58.0116 -124.311 -1193 78 65 90 255 
-55.9398 -124.311 -1193 79 62 89 255 
-53.8679 -124.311 -1193 80 59 88 255 
-51.7961 -124.311 -1193 81 59 87 255 
-49.7242 -124.311 -1193 75 60 86 255 
-47.6524 -124.311 -1193 70 62 86 255 
-45.4277 -123.894 -1189 81 66 86 255 
-43.3628 -123.894 -1189 93 67 85 255 
-41.4369 -124.311 -1193 76 69 84 255 
-39.365 -124.311 -1193 60 64 81 255 
-37.2932 -124.311 -1193 64 61 78 255 
-35.2213 -124.311 -1193 68 54 79 255 
-33.1495 -124.311 -1193 72 49 80 255 
-31.0777 -124.311 -1193 76 49 77 255 
-29.0058 -124.311 -1193 70 48 75 255 
-26.934 -124.311 -1193 64 45 71 255 
-24.7788 -123.894 -1189 63 44 67 255 
-22.7139 -123.894 -1189 63 42 67 255 
-20.649 -123.894 -1189 63 40 68 255 
-18.5841 -123.894 -1189 63 43 71 255 
-16.5192 -123.894 -1189 63 47 74 255 
-14.4543 -123.894 -1189 64 48 70 255 
-12.4311 -124.311 -1193 70 49 67 255 
-10.3592 -124.311 -1193 77 45 66 255 
-8.28737 -124.311 -1193 58 45 65 255 
-6.23637 -124.727 -1197 40 45 59 255 
-4.14369 -124.311 -1193 45 44 53 255 
-2.07184 -124.311 -1193 51 38 48 255 
0 -124.311 -1193 52 30 44 255 
2.07879 -124.727 -1197 53 26 33 255 
4.17495 -125.248 -1202 51 30 22 255 
6.26242 -125.248 -1202 49 29 29 255 
8.34989 -125.248 -1202 45 28 36 255 
10.4721 -125.665 -1206 42 25 31 255 
12.5665 -125.665 -1206 43 21 26 255 
14.7096 -126.082 -1210 45 25 23 255 
16.8109 -126.082 -1210 37 26 20 255 
18.9123 -126.082 -1210 29 31 19 255 
21.0831 -126.499 -1214 38 34 19 255 
23.287 -127.02 -1219 47 31 17 255 
25.4873 -127.437 -1223 55 33 16 255 
27.7016 -127.853 -1227 64 29 23 255 
29.954 -128.374 -1232 63 28 31 255 
32.0936 -128.374 -1232 62 94 45 255 
34.3443 -128.791 -1236 77 149 60 255 
36.6089 -129.208 -1240 93 114 60 255 
39.0437 -130.146 -1249 72 80 60 255 
41.5428 -131.188 -1259 51 35 32 255 
44.0419 -132.126 -1268 43 5 5 255 
46.5722 -133.063 -1277 35 14 10 255 
48.7899 -133.063 -1277 35 19 16 255 
51.0076 -133.063 -1277 35 21 20 255 
53.2254 -133.063 -1277 38 22 25 255 
55.4431 -133.063 -1277 42 21 35 255 
57.6608 -133.063 -1277 44 21 45 255 
