ply
format ascii 1.0
comment VCGLIB generated
element vertex 1247
property float x
property float y
property float z
property uchar red
property uchar green
property uchar blue
property uchar alpha
element face 0
property list uchar int vertex_indices
end_header
-135.022 -145.911 -1254 38 33 33 255 
-132.845 -145.911 -1254 48 26 31 255 
-131.188 -146.493 -1259 46 27 30 255 
-129.001 -146.493 -1259 44 23 27 255 
-126.815 -146.493 -1259 43 23 25 255 
-124.628 -146.493 -1259 43 23 27 255 
-122.442 -146.493 -1259 38 22 30 255 
-120.255 -146.493 -1259 34 26 21 255 
-118.069 -146.493 -1259 37 24 13 255 
-115.883 -146.493 -1259 41 23 19 255 
-113.696 -146.493 -1259 41 31 26 255 
-111.51 -146.493 -1259 41 39 26 255 
-109.323 -146.493 -1259 45 39 27 255 
-107.477 -146.958 -1263 50 39 30 255 
-105.7 -147.54 -1268 55 42 34 255 
-103.498 -147.54 -1268 60 47 27 255 
-101.296 -147.54 -1268 50 45 21 255 
-99.4068 -148.006 -1272 41 39 17 255 
-97.5798 -148.587 -1277 37 22 14 255 
-97.5277 -151.962 -1306 34 10 10 255 
-95.2596 -151.962 -1306 25 11 7 255 
-93.3476 -152.544 -1311 17 13 5 255 
-91.0708 -152.544 -1311 11 13 4 255 
-88.794 -152.544 -1311 6 12 4 255 
-86.5173 -152.544 -1311 9 12 4 255 
-84.2405 -152.544 -1311 13 14 5 255 
-81.9637 -152.544 -1311 20 14 7 255 
-79.383 -151.962 -1306 27 14 12 255 
-77.1149 -151.962 -1306 36 20 17 255 
-74.8469 -151.962 -1306 46 26 21 255 
-72.8566 -152.544 -1311 45 29 26 255 
-70.5799 -152.544 -1311 44 27 23 255 
-68.3031 -152.544 -1311 38 26 21 255 
-66.2781 -153.125 -1316 33 23 21 255 
-63.9927 -153.125 -1316 41 24 21 255 
-61.9417 -153.707 -1321 49 26 15 255 
-59.8733 -154.289 -1326 57 28 10 255 
-57.5705 -154.289 -1326 65 29 19 255 
-55.2677 -154.289 -1326 61 32 29 255 
-53.1646 -154.871 -1331 58 37 38 255 
-51.0441 -155.452 -1336 54 38 48 255 
-48.9427 -156.151 -1342 51 41 31 255 
-46.7858 -156.732 -1347 44 33 15 255 
-44.4465 -156.732 -1347 38 25 15 255 
-42.2635 -157.314 -1352 41 23 15 255 
-40.0927 -158.012 -1358 45 19 18 255 
-38.4845 -161.154 -1385 47 20 21 255 
-36.2095 -161.736 -1390 49 17 13 255 
-33.9414 -162.434 -1396 45 22 5 255 
-31.517 -162.434 -1396 42 19 11 255 
-29.2177 -163.132 -1402 40 18 18 255 
-26.7829 -163.132 -1402 39 10 18 255 
-24.4349 -163.714 -1407 36 8 19 255 
-22.0852 -164.412 -1413 34 7 15 255 
-19.7146 -165.11 -1419 32 9 11 255 
-17.7609 -169.997 -1461 30 14 10 255 
-15.2236 -169.997 -1461 30 14 10 255 
-12.7385 -170.695 -1467 30 15 18 255 
-10.1908 -170.695 -1467 33 17 26 255 
-7.64307 -170.695 -1467 36 19 16 255 
-5.11622 -171.393 -1473 32 17 6 255 
-2.54769 -170.695 -1467 29 19 7 255 
0 -172.208 -1480 30 17 9 255 
2.57027 -172.208 -1480 32 18 14 255 
5.16137 -172.906 -1486 25 22 19 255 
7.74206 -172.906 -1486 19 34 18 255 
10.3227 -172.906 -1486 27 51 18 255 
12.9034 -172.906 -1486 35 67 29 255 
15.4841 -172.906 -1486 32 63 41 255 
17.9068 -171.393 -1473 29 56 42 255 
20.3815 -170.695 -1467 30 65 44 255 
-358.283 -157.182 -1331 212 176 194 255 
-355.971 -157.182 -1331 123 86 142 255 
-353.66 -157.182 -1331 34 22 79 255 
-352.668 -157.773 -1336 17 1 17 255 
-350.348 -157.773 -1336 1 20 50 255 
-346.725 -157.182 -1331 66 79 84 255 
-344.414 -157.182 -1331 132 127 118 255 
-343.388 -157.773 -1336 121 166 153 255 
-342.599 -158.481 -1342 111 89 95 255 
-340.269 -158.481 -1342 57 1 37 255 
-336.427 -157.773 -1336 3 27 38 255 
-331.606 -156.592 -1326 69 44 39 255 
-329.303 -156.592 -1326 135 107 111 255 
-322.068 -154.23 -1306 124 172 183 255 
-317.352 -153.049 -1296 113 143 165 255 
-315.101 -153.049 -1296 96 102 148 255 
-311.643 -152.458 -1291 79 101 135 255 
-309.401 -152.458 -1291 87 89 123 255 
-307.159 -152.458 -1291 96 87 123 255 
-304.917 -152.458 -1291 100 89 123 255 
-302.675 -152.458 -1291 105 95 127 255 
-300.433 -152.458 -1291 110 118 131 255 
-298.191 -152.458 -1291 115 127 141 255 
-295.949 -152.458 -1291 102 140 151 255 
-293.707 -152.458 -1291 89 111 135 255 
-290.562 -151.986 -1287 90 65 120 255 
-288.327 -151.986 -1287 92 88 110 255 
-286.092 -151.986 -1287 96 97 100 255 
-283.856 -151.986 -1287 100 94 95 255 
-281.621 -151.986 -1287 88 100 91 255 
-279.386 -151.986 -1287 77 68 87 255 
-277.151 -151.986 -1287 73 40 84 255 
-274.916 -151.986 -1287 70 53 81 255 
-272.681 -151.986 -1287 67 51 79 255 
-270.446 -151.986 -1287 64 47 73 255 
-268.211 -151.986 -1287 57 43 68 255 
-265.976 -151.986 -1287 51 45 60 255 
-263.741 -151.986 -1287 40 46 52 255 
-261.506 -151.986 -1287 30 41 47 255 
-260.076 -152.458 -1291 39 40 42 255 
-257.834 -152.458 -1291 49 39 48 255 
-255.592 -152.458 -1291 51 39 55 255 
-253.35 -152.458 -1291 54 33 46 255 
-252.081 -153.049 -1296 52 34 37 255 
-249.83 -153.049 -1296 50 33 37 255 
-248.534 -153.639 -1301 50 37 38 255 
-246.275 -153.639 -1301 51 39 30 255 
-244.016 -153.639 -1301 44 23 22 255 
-242.685 -154.23 -1306 38 23 30 255 
-240.417 -154.23 -1306 40 17 39 255 
-238.149 -154.23 -1306 42 16 44 255 
-235.881 -154.23 -1306 46 25 49 255 
-233.613 -154.23 -1306 51 41 60 255 
-231.345 -154.23 -1306 47 33 72 255 
-229.077 -154.23 -1306 44 41 72 255 
-226.809 -154.23 -1306 49 17 73 255 
-224.541 -154.23 -1306 55 61 88 255 
-222.272 -154.23 -1306 52 39 104 255 
-220.004 -154.23 -1306 49 62 107 255 
-217.736 -154.23 -1306 52 33 110 255 
-214.643 -153.639 -1301 56 92 113 255 
-211.568 -153.049 -1296 80 91 116 255 
-207.863 -151.986 -1287 105 104 112 255 
-205.628 -151.986 -1287 107 109 108 255 
-203.393 -151.986 -1287 110 99 111 255 
-201.158 -151.986 -1287 112 101 115 255 
-198.15 -151.396 -1282 115 89 112 255 
-195.16 -150.805 -1277 112 91 109 255 
-192.942 -150.805 -1277 110 83 112 255 
-189.977 -150.215 -1272 97 82 115 255 
-187.768 -150.215 -1272 84 79 119 255 
-185.559 -150.215 -1272 78 78 124 255 
-182.774 -149.742 -1268 73 82 122 255 
-180.572 -149.742 -1268 73 72 121 255 
-178.37 -149.742 -1268 74 79 112 255 
-176.167 -149.742 -1268 77 72 103 255 
-173.965 -149.742 -1268 80 79 97 255 
-171.763 -149.742 -1268 83 97 92 255 
-168.893 -149.152 -1263 87 86 111 255 
-166.699 -149.152 -1263 105 97 131 255 
-164.506 -149.152 -1263 124 113 135 255 
-162.312 -149.152 -1263 111 121 139 255 
-160.119 -149.152 -1263 98 98 98 255 
-157.425 -148.68 -1259 87 84 58 255 
-155.239 -148.68 -1259 76 57 58 255 
-153.052 -148.68 -1259 64 49 59 255 
-150.866 -148.68 -1259 53 47 53 255 
-148.089 -148.089 -1254 52 49 47 255 
-145.911 -148.089 -1254 51 43 48 255 
-143.733 -148.089 -1254 47 41 50 255 
-141.556 -148.089 -1254 43 40 43 255 
-139.378 -148.089 -1254 27 35 37 255 
-137.2 -148.089 -1254 12 33 34 255 
-135.022 -148.089 -1254 26 31 31 255 
-132.845 -148.089 -1254 41 25 29 255 
-131.188 -148.68 -1259 40 24 28 255 
-128.489 -148.089 -1254 40 21 26 255 
-126.311 -148.089 -1254 40 20 25 255 
-124.133 -148.089 -1254 41 20 26 255 
-122.442 -148.68 -1259 41 20 28 255 
-119.778 -148.089 -1254 41 27 22 255 
-118.069 -148.68 -1259 40 29 17 255 
-115.883 -148.68 -1259 40 33 20 255 
-113.696 -148.68 -1259 42 40 24 255 
-111.51 -148.68 -1259 45 40 29 255 
-109.323 -148.68 -1259 48 42 34 255 
-107.477 -149.152 -1263 52 45 32 255 
-105.7 -149.742 -1268 52 41 30 255 
-103.498 -149.742 -1268 52 38 24 255 
-101.616 -150.215 -1272 46 36 18 255 
-99.4068 -150.215 -1272 41 28 14 255 
-97.5798 -150.805 -1277 36 17 10 255 
-97.9011 -154.82 -1311 32 13 7 255 
-95.2596 -154.23 -1306 24 12 5 255 
-93.3476 -154.82 -1311 17 13 4 255 
-91.0708 -154.82 -1311 9 17 4 255 
-88.794 -154.82 -1311 1 14 4 255 
-86.1873 -154.23 -1306 5 14 5 255 
-83.9192 -154.23 -1306 9 16 6 255 
-81.6511 -154.23 -1306 19 15 8 255 
-79.0791 -153.639 -1301 29 20 13 255 
-77.1149 -154.23 -1306 43 21 18 255 
-74.5603 -153.639 -1301 57 29 20 255 
-72.5788 -154.23 -1306 51 33 23 255 
-70.5799 -154.82 -1311 46 32 19 255 
-68.3031 -154.82 -1311 36 29 16 255 
-66.2781 -155.411 -1316 26 28 19 255 
-63.9927 -155.411 -1316 38 27 23 255 
-61.7072 -155.411 -1316 51 30 20 255 
-59.6476 -156.001 -1321 62 36 18 255 
-57.3534 -156.001 -1321 74 37 21 255 
-55.2677 -156.592 -1326 66 44 25 255 
-53.1646 -157.182 -1331 59 39 32 255 
-51.0441 -157.773 -1336 54 40 39 255 
-48.9427 -158.481 -1342 50 35 28 255 
-46.7858 -159.072 -1347 40 35 17 255 
-44.4465 -159.072 -1347 30 29 17 255 
-42.2635 -159.662 -1352 37 23 18 255 
-40.0927 -160.371 -1358 44 24 21 255 
-38.4845 -163.559 -1385 47 26 24 255 
-36.2095 -164.15 -1390 51 31 18 255 
-33.9414 -164.858 -1396 46 39 13 255 
-31.6525 -165.567 -1402 42 30 16 255 
-29.2177 -165.567 -1402 39 26 20 255 
-26.8784 -166.157 -1407 37 16 19 255 
-24.4349 -166.157 -1407 34 9 18 255 
-22.0852 -166.866 -1413 31 8 15 255 
-19.798 -168.283 -1425 27 10 13 255 
-17.7609 -172.534 -1461 24 12 11 255 
-15.2861 -173.243 -1467 27 16 10 255 
-12.6863 -172.534 -1461 30 18 14 255 
-10.1908 -173.243 -1467 33 25 18 255 
-7.64307 -173.243 -1467 36 21 12 255 
-5.11622 -173.951 -1473 36 22 7 255 
-2.54769 -173.243 -1467 36 21 9 255 
0 -173.951 -1473 36 22 11 255 
2.57027 -174.778 -1480 36 23 13 255 
5.14053 -174.778 -1480 34 26 15 255 
10.2811 -174.778 -1480 36 47 15 255 
12.8513 -174.778 -1480 40 52 20 255 
15.3487 -173.951 -1473 27 51 26 255 
17.8338 -173.243 -1467 14 46 24 255 
20.2982 -172.534 -1461 17 44 22 255 
-358.283 -159.494 -1331 175 150 175 255 
-355.971 -159.494 -1331 98 70 112 255 
-353.66 -159.494 -1331 22 1 56 255 
-352.668 -160.093 -1336 13 1 1 255 
-349.037 -159.494 -1331 5 1 50 255 
-346.725 -159.494 -1331 64 81 99 255 
-344.414 -159.494 -1331 124 155 149 255 
-342.102 -159.494 -1331 130 155 199 255 
-342.599 -160.812 -1342 136 135 136 255 
-338.747 -160.093 -1336 94 72 74 255 
-333.909 -158.895 -1326 53 51 71 255 
-327.855 -157.097 -1311 102 89 69 255 
-324.336 -156.498 -1306 151 135 136 255 
-319.602 -155.3 -1296 141 178 203 255 
-316.127 -154.701 -1291 131 166 169 255 
-315.101 -155.3 -1296 110 123 136 255 
-311.643 -154.701 -1291 90 93 127 255 
-309.401 -154.701 -1291 95 104 119 255 
-307.159 -154.701 -1291 100 84 122 255 
-304.917 -154.701 -1291 100 80 125 255 
-302.675 -154.701 -1291 101 84 124 255 
-300.433 -154.701 -1291 91 90 123 255 
-298.191 -154.701 -1291 82 105 132 255 
-295.949 -154.701 -1291 85 99 141 255 
-293.707 -154.701 -1291 88 101 136 255 
-290.562 -154.221 -1287 84 80 131 255 
-288.327 -154.221 -1287 81 83 125 255 
-286.092 -154.221 -1287 88 94 120 255 
-283.856 -154.221 -1287 95 126 106 255 
-281.621 -154.221 -1287 86 92 93 255 
-279.386 -154.221 -1287 77 79 90 255 
-277.151 -154.221 -1287 75 67 87 255 
-274.916 -154.221 -1287 73 69 83 255 
-272.681 -154.221 -1287 70 63 79 255 
-270.446 -154.221 -1287 67 48 73 255 
-268.211 -154.221 -1287 58 47 68 255 
-265.976 -154.221 -1287 50 47 61 255 
-263.741 -154.221 -1287 45 37 54 255 
-261.506 -154.221 -1287 41 36 47 255 
-260.076 -154.701 -1291 44 35 41 255 
-257.035 -154.221 -1287 47 39 47 255 
-255.592 -154.701 -1291 42 26 53 255 
-253.35 -154.701 -1291 37 24 47 255 
-251.108 -154.701 -1291 34 23 42 255 
-249.83 -155.3 -1296 31 34 42 255 
-247.579 -155.3 -1296 44 44 42 255 
-246.275 -155.899 -1301 57 71 41 255 
-244.016 -155.899 -1301 52 53 41 255 
-241.756 -155.899 -1301 48 45 42 255 
-239.497 -155.899 -1301 47 33 44 255 
-238.149 -156.498 -1306 46 15 46 255 
-235.881 -156.498 -1306 49 30 49 255 
-233.613 -156.498 -1306 53 41 59 255 
-231.345 -156.498 -1306 53 38 69 255 
-229.077 -156.498 -1306 54 35 76 255 
-226.809 -156.498 -1306 59 35 84 255 
-224.541 -156.498 -1306 64 42 80 255 
-222.272 -156.498 -1306 64 43 77 255 
-220.004 -156.498 -1306 65 35 86 255 
-217.736 -156.498 -1306 68 53 95 255 
-214.643 -155.899 -1301 72 75 109 255 
-211.568 -155.3 -1296 84 82 123 255 
-208.509 -154.701 -1291 96 91 129 255 
-205.628 -154.221 -1287 99 98 135 255 
-203.393 -154.221 -1287 102 97 132 255 
-200.377 -153.622 -1282 106 91 129 255 
-198.15 -153.622 -1282 110 88 125 255 
-195.16 -153.023 -1277 111 87 121 255 
-192.942 -153.023 -1277 113 80 114 255 
-189.977 -152.424 -1272 108 84 107 255 
-187.768 -152.424 -1272 103 70 113 255 
-185.559 -152.424 -1272 106 103 119 255 
-182.774 -151.944 -1268 110 87 121 255 
-180.572 -151.944 -1268 101 102 123 255 
-178.37 -151.944 -1268 92 89 115 255 
-176.167 -151.944 -1268 89 89 108 255 
-173.279 -151.345 -1263 87 101 114 255 
-171.086 -151.345 -1263 88 99 121 255 
-168.893 -151.345 -1263 89 96 125 255 
-166.171 -150.866 -1259 96 108 130 255 
-163.985 -150.866 -1259 103 129 132 255 
-161.798 -150.866 -1259 89 92 134 255 
-158.978 -150.267 -1254 76 80 90 255 
-157.425 -150.866 -1259 70 65 47 255 
-154.622 -150.267 -1254 65 62 51 255 
-152.445 -150.267 -1254 56 50 56 255 
-150.267 -150.267 -1254 48 46 48 255 
-148.089 -150.267 -1254 46 40 41 255 
-145.911 -150.267 -1254 44 37 41 255 
-143.733 -150.267 -1254 42 37 41 255 
-141.556 -150.267 -1254 40 35 40 255 
-139.378 -150.267 -1254 30 32 39 255 
-137.2 -150.267 -1254 21 30 34 255 
-135.022 -150.267 -1254 29 25 30 255 
-132.845 -150.267 -1254 38 22 28 255 
-130.667 -150.267 -1254 34 19 26 255 
-128.489 -150.267 -1254 31 18 25 255 
-126.311 -150.267 -1254 37 17 25 255 
-124.133 -150.267 -1254 43 17 26 255 
-121.956 -150.267 -1254 41 25 27 255 
-119.778 -150.267 -1254 40 34 24 255 
-117.6 -150.267 -1254 41 35 22 255 
-115.422 -150.267 -1254 42 43 22 255 
-113.245 -150.267 -1254 41 41 22 255 
-111.51 -150.866 -1259 41 42 31 255 
-109.323 -150.866 -1259 44 45 41 255 
-107.477 -151.345 -1263 47 59 34 255 
-105.7 -151.944 -1268 46 37 27 255 
-103.498 -151.944 -1268 46 30 21 255 
-101.616 -152.424 -1272 42 27 15 255 
-99.4068 -152.424 -1272 38 23 10 255 
-97.5798 -153.023 -1277 33 18 6 255 
-97.9011 -157.097 -1311 29 15 4 255 
-95.2596 -156.498 -1306 22 11 3 255 
-92.9916 -156.498 -1306 15 12 3 255 
-90.7235 -156.498 -1306 10 13 4 255 
-88.4554 -156.498 -1306 5 17 5 255 
-86.1873 -156.498 -1306 9 17 6 255 
-83.5979 -155.899 -1301 14 22 8 255 
-81.3385 -155.899 -1301 23 23 10 255 
-78.7752 -155.3 -1296 33 33 14 255 
-76.5245 -155.3 -1296 43 32 19 255 
-74.5603 -155.899 -1301 53 38 20 255 
-72.5788 -156.498 -1306 50 38 21 255 
-70.3107 -156.498 -1306 47 41 16 255 
-68.3031 -157.097 -1311 42 37 12 255 
-66.0263 -157.097 -1311 38 33 19 255 
-63.9927 -157.696 -1316 46 33 26 255 
-61.7072 -157.696 -1316 55 34 26 255 
-59.6476 -158.295 -1321 60 37 26 255 
-57.3534 -158.295 -1321 66 40 23 255 
-55.2677 -158.895 -1326 58 39 21 255 
-52.9649 -158.895 -1326 51 36 25 255 
-50.8531 -159.494 -1331 49 33 30 255 
-48.7239 -160.093 -1336 47 27 25 255 
-46.6121 -160.812 -1342 42 30 20 255 
-44.4465 -161.411 -1347 37 34 21 255 
-42.2635 -162.01 -1352 41 30 22 255 
-40.0927 -162.729 -1358 45 32 25 255 
-38.6235 -166.564 -1390 52 36 28 255 
-36.2095 -166.564 -1390 59 46 24 255 
-33.9414 -167.283 -1396 51 41 21 255 
-31.6525 -168.002 -1402 43 38 22 255 
-29.2177 -168.002 -1402 40 26 23 255 
-26.8784 -168.601 -1407 38 20 20 255 
-24.5391 -169.32 -1413 36 12 17 255 
-22.179 -170.039 -1419 34 9 16 255 
-19.798 -170.758 -1425 26 8 16 255 
-17.8338 -175.791 -1467 18 11 13 255 
-15.2236 -175.072 -1461 27 13 10 255 
-12.6863 -175.072 -1461 36 20 10 255 
-10.1491 -175.072 -1461 35 18 10 255 
-7.64307 -175.791 -1467 34 19 9 255 
-5.09538 -175.791 -1467 35 20 8 255 
-2.54769 -175.791 -1467 36 24 10 255 
0 -176.51 -1473 37 22 13 255 
2.57027 -177.348 -1480 38 26 12 255 
10.2324 -176.51 -1473 48 42 12 255 
12.7906 -176.51 -1473 55 44 12 255 
15.2861 -175.791 -1467 48 41 12 255 
17.7609 -175.072 -1461 41 36 6 255 
20.2982 -175.072 -1461 41 46 1 255 
-356.937 -161.197 -1326 139 119 167 255 
-354.634 -161.197 -1326 74 45 103 255 
-353.66 -161.805 -1331 10 15 52 255 
-351.349 -161.805 -1331 10 1 1 255 
-349.037 -161.805 -1331 10 23 46 255 
-346.725 -161.805 -1331 63 90 92 255 
-343.12 -161.197 -1326 117 126 139 255 
-340.817 -161.197 -1326 139 166 186 255 
-341.067 -162.413 -1336 162 138 154 255 
-337.479 -161.805 -1331 132 103 123 255 
-331.391 -159.982 -1316 103 100 121 255 
-326.604 -158.766 -1306 135 127 120 255 
-323.095 -158.158 -1301 168 182 161 255 
-318.369 -156.943 -1291 159 240 203 255 
-316.127 -156.943 -1291 150 188 179 255 
-313.885 -156.943 -1291 125 132 155 255 
-311.643 -156.943 -1291 101 138 136 255 
-309.401 -156.943 -1291 103 153 118 255 
-307.159 -156.943 -1291 105 93 116 255 
-304.917 -156.943 -1291 101 64 115 255 
-301.737 -156.456 -1287 97 80 110 255 
-299.502 -156.456 -1287 73 54 105 255 
-297.267 -156.456 -1287 49 64 101 255 
-295.949 -156.943 -1291 68 53 98 255 
-293.707 -156.943 -1291 88 70 102 255 
-290.562 -156.456 -1287 79 73 106 255 
-288.327 -156.456 -1287 71 73 109 255 
-286.092 -156.456 -1287 80 72 112 255 
-283.856 -156.456 -1287 90 82 103 255 
-281.621 -156.456 -1287 84 66 95 255 
-279.386 -156.456 -1287 78 75 91 255 
-276.074 -155.848 -1282 77 82 88 255 
-273.848 -155.848 -1282 76 81 86 255 
-271.622 -155.848 -1282 73 88 84 255 
-269.395 -155.848 -1282 71 70 80 255 
-268.211 -156.456 -1287 60 54 77 255 
-264.942 -155.848 -1282 50 41 66 255 
-263.741 -156.456 -1287 51 20 56 255 
-261.506 -156.456 -1287 53 21 47 255 
-259.27 -156.456 -1287 49 26 39 255 
-257.035 -156.456 -1287 46 18 39 255 
-254.8 -156.456 -1287 33 3 39 255 
-252.565 -156.456 -1287 21 8 32 255 
-251.108 -156.943 -1291 17 1 26 255 
-248.866 -156.943 -1291 13 20 33 255 
-246.624 -156.943 -1291 38 37 41 255 
-245.328 -157.55 -1296 63 58 47 255 
-243.078 -157.55 -1296 61 74 54 255 
-241.756 -158.158 -1301 59 57 51 255 
-239.497 -158.158 -1301 54 55 49 255 
-238.149 -158.766 -1306 50 38 48 255 
-235.881 -158.766 -1306 52 40 48 255 
-233.613 -158.766 -1306 55 39 60 255 
-231.345 -158.766 -1306 60 43 73 255 
-229.077 -158.766 -1306 65 43 79 255 
-226.809 -158.766 -1306 69 50 85 255 
-224.541 -158.766 -1306 73 55 83 255 
-222.272 -158.766 -1306 77 60 81 255 
-220.004 -158.766 -1306 81 61 90 255 
-217.736 -158.766 -1306 84 71 100 255 
-214.643 -158.158 -1301 88 73 113 255 
-211.568 -157.55 -1296 88 74 126 255 
-207.863 -156.456 -1287 88 92 131 255 
-205.628 -156.456 -1287 91 98 137 255 
-203.393 -156.456 -1287 94 95 133 255 
-200.377 -155.848 -1282 100 80 130 255 
-198.15 -155.848 -1282 106 94 143 255 
-195.16 -155.241 -1277 111 91 156 255 
-192.942 -155.241 -1277 117 115 145 255 
-189.977 -154.633 -1272 120 104 135 255 
-187.768 -154.633 -1272 123 133 138 255 
-185.559 -154.633 -1272 135 179 141 255 
-182.774 -154.147 -1268 147 132 133 255 
-180.572 -154.147 -1268 129 161 126 255 
-178.37 -154.147 -1268 111 100 120 255 
-176.167 -154.147 -1268 102 94 115 255 
-173.279 -153.539 -1263 94 107 116 255 
-171.086 -153.539 -1263 93 104 118 255 
-168.358 -153.052 -1259 92 103 118 255 
-166.171 -153.052 -1259 87 112 119 255 
-163.985 -153.052 -1259 83 81 100 255 
-161.156 -152.445 -1254 68 41 82 255 
-158.978 -152.445 -1254 54 45 68 255 
-156.8 -152.445 -1254 54 37 54 255 
-154.622 -152.445 -1254 55 44 53 255 
-152.445 -152.445 -1254 49 45 53 255 
-150.267 -152.445 -1254 44 36 47 255 
-148.089 -152.445 -1254 40 30 41 255 
-145.911 -152.445 -1254 37 32 39 255 
-143.16 -151.837 -1249 37 36 37 255 
-141.556 -152.445 -1254 37 30 29 255 
-139.378 -152.445 -1254 33 29 22 255 
-136.653 -151.837 -1249 30 22 22 255 
-134.484 -151.837 -1249 32 17 23 255 
-132.315 -151.837 -1249 35 17 23 255 
-130.667 -152.445 -1254 29 14 23 255 
-128.489 -152.445 -1254 23 17 24 255 
-126.311 -152.445 -1254 34 16 25 255 
-124.133 -152.445 -1254 46 23 30 255 
-121.956 -152.445 -1254 42 33 35 255 
-119.778 -152.445 -1254 39 32 28 255 
-117.6 -152.445 -1254 41 38 22 255 
-115.422 -152.445 -1254 44 37 21 255 
-113.245 -152.445 -1254 41 42 21 255 
-111.51 -153.052 -1259 38 37 25 255 
-109.323 -153.052 -1259 40 41 30 255 
-107.477 -153.539 -1263 42 33 27 255 
-105.7 -154.147 -1268 41 19 24 255 
-103.498 -154.147 -1268 40 20 20 255 
-101.616 -154.633 -1272 38 20 17 255 
-99.4068 -154.633 -1272 36 19 12 255 
-99.4137 -158.158 -1301 31 18 7 255 
-97.5277 -158.766 -1306 26 13 5 255 
-95.2596 -158.766 -1306 20 7 3 255 
-92.9916 -158.766 -1306 14 10 2 255 
-90.7235 -158.766 -1306 12 10 2 255 
-88.4554 -158.766 -1306 10 15 7 255 
-85.8573 -158.158 -1301 14 17 12 255 
-83.5979 -158.158 -1301 19 22 15 255 
-81.0259 -157.55 -1296 28 25 18 255 
-78.4713 -156.943 -1291 38 33 21 255 
-76.2292 -156.943 -1291 43 40 24 255 
-74.2738 -157.55 -1296 49 40 25 255 
-72.3009 -158.158 -1301 49 42 26 255 
-70.3107 -158.766 -1306 49 43 24 255 
-68.0426 -158.766 -1306 49 46 22 255 
-66.0263 -159.374 -1311 50 39 29 255 
-63.7496 -159.374 -1311 54 41 37 255 
-61.7072 -159.982 -1316 59 38 31 255 
-59.4218 -159.982 -1316 58 39 26 255 
-57.3534 -160.59 -1321 58 36 24 255 
-55.2677 -161.197 -1326 51 37 22 255 
-52.9649 -161.197 -1326 44 33 25 255 
-50.8531 -161.805 -1331 44 30 28 255 
-48.7239 -162.413 -1336 45 27 21 255 
-46.6121 -163.142 -1342 45 27 15 255 
-44.4465 -163.75 -1347 45 30 19 255 
-42.2635 -164.358 -1352 46 33 23 255 
-40.0927 -165.088 -1358 47 35 24 255 
-38.4845 -168.37 -1385 57 41 26 255 
-36.2095 -168.978 -1390 68 42 24 255 
-33.9414 -169.707 -1396 56 41 22 255 
-31.6525 -170.436 -1402 44 31 19 255 
-29.2177 -170.436 -1402 42 23 16 255 
-26.8784 -171.044 -1407 40 16 15 255 
-24.5391 -171.774 -1413 39 11 15 255 
-22.179 -172.503 -1419 38 9 16 255 
-20.2982 -177.609 -1461 25 5 17 255 
-17.7609 -177.609 -1461 12 8 11 255 
-15.2236 -177.609 -1461 27 9 6 255 
-12.6863 -177.609 -1461 42 14 8 255 
-10.1491 -177.609 -1461 37 11 11 255 
-7.64307 -178.338 -1467 32 17 8 255 
-5.09538 -178.338 -1467 34 17 6 255 
-2.54769 -178.338 -1467 37 21 14 255 
0 -179.068 -1473 39 18 23 255 
2.55811 -179.068 -1473 41 26 23 255 
10.2324 -179.068 -1473 60 37 25 255 
12.7906 -179.068 -1473 71 43 26 255 
15.2861 -178.338 -1467 70 36 28 255 
17.7609 -177.609 -1461 69 55 22 255 
20.2982 -177.609 -1461 66 70 17 255 
-356.937 -163.5 -1326 115 82 160 255 
-354.634 -163.5 -1326 64 37 94 255 
-352.331 -163.5 -1326 13 16 47 255 
-350.029 -163.5 -1326 9 4 1 255 
-347.726 -163.5 -1326 6 1 43 255 
-345.423 -163.5 -1326 63 65 86 255 
-343.12 -163.5 -1326 121 94 130 255 
-340.817 -163.5 -1326 132 132 174 255 
-338.515 -163.5 -1326 143 150 173 255 
-333.676 -162.267 -1316 129 131 173 255 
-330.132 -161.651 -1311 115 122 172 255 
-325.354 -160.418 -1301 122 152 171 255 
-321.853 -159.801 -1296 129 229 187 255 
-318.369 -159.185 -1291 150 230 204 255 
-316.127 -159.185 -1291 172 215 189 255 
-313.885 -159.185 -1291 158 194 174 255 
-310.677 -158.691 -1287 144 177 146 255 
-308.442 -158.691 -1287 132 147 118 255 
-306.207 -158.691 -1287 121 74 112 255 
-303.972 -158.691 -1287 108 95 106 255 
-301.737 -158.691 -1287 95 119 96 255 
-299.502 -158.691 -1287 82 80 87 255 
-297.267 -158.691 -1287 70 47 71 255 
-295.032 -158.691 -1287 81 54 56 255 
-292.797 -158.691 -1287 93 53 69 255 
-290.562 -158.691 -1287 88 73 82 255 
-288.327 -158.691 -1287 83 65 93 255 
-286.092 -158.691 -1287 89 80 105 255 
-283.856 -158.691 -1287 95 65 101 255 
-281.621 -158.691 -1287 85 71 97 255 
-278.301 -158.075 -1282 75 74 93 255 
-276.074 -158.075 -1282 75 76 90 255 
-273.848 -158.075 -1282 76 86 90 255 
-271.622 -158.075 -1282 76 87 90 255 
-269.395 -158.075 -1282 77 91 88 255 
-267.169 -158.075 -1282 75 68 87 255 
-264.942 -158.075 -1282 73 44 72 255 
-262.716 -158.075 -1282 68 36 58 255 
-261.506 -158.691 -1287 64 5 48 255 
-259.27 -158.691 -1287 54 14 38 255 
-257.035 -158.691 -1287 45 6 31 255 
-254.8 -158.691 -1287 68 43 25 255 
-252.565 -158.691 -1287 92 6 18 255 
-250.33 -158.691 -1287 89 43 11 255 
-248.866 -159.185 -1291 86 9 25 255 
-246.624 -159.185 -1291 68 44 40 255 
-244.382 -159.185 -1291 51 54 54 255 
-243.078 -159.801 -1296 55 58 68 255 
-240.827 -159.801 -1296 60 57 61 255 
-239.497 -160.418 -1301 50 47 54 255 
-237.237 -160.418 -1301 41 44 50 255 
-234.978 -160.418 -1301 50 34 47 255 
-233.613 -161.034 -1306 59 36 62 255 
-231.345 -161.034 -1306 65 51 77 255 
-229.077 -161.034 -1306 72 48 82 255 
-226.809 -161.034 -1306 76 66 87 255 
-224.541 -161.034 -1306 81 70 86 255 
-222.272 -161.034 -1306 85 80 86 255 
-220.004 -161.034 -1306 90 80 96 255 
-216.903 -160.418 -1301 97 91 106 255 
-214.643 -160.418 -1301 104 73 117 255 
-211.568 -159.801 -1296 108 98 129 255 
-207.863 -158.691 -1287 113 108 134 255 
-205.628 -158.691 -1287 112 113 139 255 
-202.603 -158.075 -1282 111 108 135 255 
-200.377 -158.075 -1282 112 107 132 255 
-198.15 -158.075 -1282 114 121 161 255 
-195.16 -157.458 -1277 115 120 191 255 
-192.186 -156.842 -1272 117 186 177 255 
-189.977 -156.842 -1272 118 151 163 255 
-187.768 -156.842 -1272 119 183 163 255 
-185.559 -156.842 -1272 117 141 164 255 
-182.774 -156.349 -1268 116 102 146 255 
-180.572 -156.349 -1268 107 100 129 255 
-177.666 -155.732 -1263 98 59 126 255 
-175.473 -155.732 -1263 94 78 123 255 
-172.731 -155.239 -1259 90 129 119 255 
-170.544 -155.239 -1259 88 106 115 255 
-168.358 -155.239 -1259 87 103 112 255 
-165.511 -154.622 -1254 76 73 109 255 
-163.333 -154.622 -1254 65 46 69 255 
-161.156 -154.622 -1254 60 33 30 255 
-158.978 -154.622 -1254 56 25 46 255 
-156.8 -154.622 -1254 53 35 62 255 
-154.006 -154.006 -1249 51 35 56 255 
-152.445 -154.622 -1254 48 33 51 255 
-150.267 -154.622 -1254 45 26 46 255 
-147.499 -154.006 -1249 39 22 41 255 
-145.329 -154.006 -1249 34 25 37 255 
-143.16 -154.006 -1249 33 24 34 255 
-140.991 -154.006 -1249 33 23 19 255 
-138.822 -154.006 -1249 28 20 5 255 
-136.653 -154.006 -1249 24 14 11 255 
-134.484 -154.006 -1249 32 18 17 255 
-132.315 -154.006 -1249 41 19 19 255 
-130.146 -154.006 -1249 36 18 21 255 
-127.977 -154.006 -1249 31 22 23 255 
-125.808 -154.006 -1249 36 25 25 255 
-123.639 -154.006 -1249 41 29 34 255 
-121.956 -154.622 -1254 38 29 43 255 
-119.778 -154.622 -1254 36 27 33 255 
-117.6 -154.622 -1254 38 27 23 255 
-115.422 -154.622 -1254 41 28 22 255 
-113.245 -154.622 -1254 33 28 21 255 
-111.51 -155.239 -1259 26 26 20 255 
-109.323 -155.239 -1259 32 22 20 255 
-107.137 -155.239 -1259 39 13 20 255 
-105.7 -156.349 -1268 40 15 21 255 
-103.498 -156.349 -1268 41 15 20 255 
-101.616 -156.842 -1272 40 16 20 255 
-99.7975 -157.458 -1277 39 18 14 255 
-99.0317 -159.801 -1296 33 14 8 255 
-97.1543 -160.418 -1301 27 13 6 255 
-94.8949 -160.418 -1301 24 10 4 255 
-92.6355 -160.418 -1301 21 12 2 255 
-90.3761 -160.418 -1301 18 13 1 255 
-88.1167 -160.418 -1301 16 17 9 255 
-85.8573 -160.418 -1301 23 20 18 255 
-83.2766 -159.801 -1296 30 26 22 255 
-80.7133 -159.185 -1291 37 30 26 255 
-78.4713 -159.185 -1291 44 37 28 255 
-76.2292 -159.185 -1291 49 42 30 255 
-73.9872 -159.185 -1291 54 41 31 255 
-72.023 -159.801 -1296 53 43 32 255 
-70.0415 -160.418 -1301 53 45 32 255 
-68.0426 -161.034 -1306 57 43 32 255 
-65.7745 -161.034 -1306 62 40 40 255 
-63.7496 -161.651 -1311 60 40 49 255 
-61.4728 -161.651 -1311 58 39 38 255 
-59.4218 -162.267 -1316 56 34 27 255 
-57.1363 -162.267 -1316 54 30 25 255 
-55.0593 -162.884 -1321 46 31 24 255 
-52.7651 -162.884 -1321 38 33 25 255 
-50.8531 -164.117 -1331 33 28 26 255 
-48.7239 -164.733 -1336 29 28 18 255 
-46.6121 -165.473 -1342 36 30 10 255 
-44.4465 -166.09 -1347 44 28 17 255 
-42.2635 -166.706 -1352 46 34 25 255 
-40.0927 -167.446 -1358 48 34 25 255 
-38.4845 -170.775 -1385 53 37 25 255 
-36.2095 -171.392 -1390 59 41 24 255 
-33.9414 -172.131 -1396 50 32 24 255 
-31.6525 -172.871 -1402 41 22 17 255 
-29.2177 -172.871 -1402 39 18 10 255 
-26.8784 -173.488 -1407 38 12 12 255 
-24.5391 -174.228 -1413 42 12 14 255 
-22.179 -174.967 -1419 46 14 16 255 
-20.2148 -179.406 -1455 36 11 18 255 
-17.7609 -180.146 -1461 26 10 10 255 
-15.2236 -180.146 -1461 39 18 2 255 
-12.6863 -180.146 -1461 52 17 7 255 
-10.1491 -180.146 -1461 58 28 13 255 
-7.64307 -180.886 -1467 65 21 8 255 
-5.09538 -180.886 -1467 67 32 4 255 
-2.54769 -180.886 -1467 70 26 18 255 
15.2861 -180.886 -1467 78 71 45 255 
17.7609 -180.146 -1461 75 81 39 255 
20.2982 -180.146 -1461 69 93 34 255 
-355.591 -165.178 -1321 91 62 126 255 
-353.297 -165.178 -1321 54 8 48 255 
-351.003 -165.178 -1321 17 6 24 255 
-350.029 -165.803 -1326 9 1 1 255 
-347.726 -165.803 -1326 2 19 47 255 
-345.423 -165.803 -1326 63 76 94 255 
-343.12 -165.803 -1326 125 101 132 255 
-340.817 -165.803 -1326 124 120 171 255 
-337.238 -165.178 -1321 124 135 169 255 
-333.676 -164.553 -1316 126 150 168 255 
-328.873 -163.302 -1306 128 131 160 255 
-325.354 -162.677 -1301 109 131 153 255 
-321.853 -162.052 -1296 91 177 172 255 
-318.369 -161.427 -1291 143 239 192 255 
-315.148 -160.926 -1287 195 218 192 255 
-313.885 -161.427 -1291 191 254 193 255 
-310.677 -160.926 -1287 188 205 169 255 
-308.442 -160.926 -1287 163 188 146 255 
-306.207 -160.926 -1287 138 148 135 255 
-303.972 -160.926 -1287 115 126 125 255 
-300.565 -160.301 -1282 93 136 108 255 
-298.339 -160.301 -1282 92 103 92 255 
-296.112 -160.301 -1282 91 93 87 255 
-293.886 -160.301 -1282 94 63 82 255 
-292.797 -160.926 -1287 98 93 91 255 
-289.433 -160.301 -1282 96 104 100 255 
-287.206 -160.301 -1282 95 100 105 255 
-284.98 -160.301 -1282 98 118 110 255 
-282.754 -160.301 -1282 101 96 105 255 
-280.527 -160.301 -1282 86 80 100 255 
-278.301 -160.301 -1282 72 77 96 255 
-274.998 -159.676 -1277 74 64 93 255 
-272.78 -159.676 -1277 77 78 92 255 
-270.562 -159.676 -1277 80 85 92 255 
-269.395 -160.301 -1282 84 86 92 255 
-267.169 -160.301 -1282 90 86 93 255 
-263.909 -159.676 -1277 96 72 87 255 
-262.716 -160.301 -1282 86 77 82 255 
-260.49 -160.301 -1282 76 50 70 255 
-258.263 -160.301 -1282 60 20 58 255 
-256.037 -160.301 -1282 44 68 85 255 
-254.8 -160.926 -1287 103 158 113 255 
-252.565 -160.926 -1287 163 124 112 255 
-250.33 -160.926 -1287 161 160 112 255 
-248.095 -160.926 -1287 159 104 83 255 
-246.624 -161.427 -1291 99 79 54 255 
-244.382 -161.427 -1291 39 69 57 255 
-242.14 -161.427 -1291 50 51 61 255 
-240.827 -162.052 -1296 62 50 45 255 
-238.576 -162.052 -1296 47 34 29 255 
-237.237 -162.677 -1301 33 24 26 255 
-234.978 -162.677 -1301 48 17 24 255 
-232.719 -162.677 -1301 63 37 54 255 
-231.345 -163.302 -1306 71 78 84 255 
-229.077 -163.302 -1306 80 75 85 255 
-226.809 -163.302 -1306 85 97 87 255 
-224.541 -163.302 -1306 90 93 96 255 
-222.272 -163.302 -1306 95 112 106 255 
-219.162 -162.677 -1301 100 106 115 255 
-216.903 -162.677 -1301 110 142 125 255 
-214.643 -162.677 -1301 120 119 134 255 
-211.568 -162.052 -1296 129 141 143 255 
-207.863 -160.926 -1287 139 131 142 255 
-205.628 -160.926 -1287 134 138 142 255 
-202.603 -160.301 -1282 129 123 134 255 
-200.377 -160.301 -1282 125 123 127 255 
-197.377 -159.676 -1277 122 100 137 255 
-195.16 -159.676 -1277 120 84 147 255 
-192.186 -159.051 -1272 118 123 149 255 
-189.977 -159.051 -1272 117 134 152 255 
-187.178 -158.551 -1268 116 130 147 255 
-184.976 -158.551 -1268 101 101 143 255 
-182.774 -158.551 -1268 86 93 135 255 
-179.86 -157.926 -1263 85 80 127 255 
-177.666 -157.926 -1263 85 62 122 255 
-174.917 -157.425 -1259 85 32 118 255 
-172.731 -157.425 -1259 86 81 117 255 
-170.544 -157.425 -1259 84 89 117 255 
-167.689 -156.8 -1254 82 78 98 255 
-165.511 -156.8 -1254 64 34 80 255 
-163.333 -156.8 -1254 47 30 57 255 
-161.156 -156.8 -1254 52 24 34 255 
-158.344 -156.175 -1249 58 29 48 255 
-156.175 -156.175 -1249 52 45 62 255 
-154.006 -156.175 -1249 47 34 49 255 
-151.837 -156.175 -1249 47 27 37 255 
-149.668 -156.175 -1249 47 17 29 255 
-147.499 -156.175 -1249 39 8 21 255 
-145.329 -156.175 -1249 32 12 27 255 
-143.16 -156.175 -1249 31 12 33 255 
-140.991 -156.175 -1249 30 20 21 255 
-138.822 -156.175 -1249 24 17 10 255 
-136.653 -156.175 -1249 18 22 14 255 
-134.484 -156.175 -1249 32 26 18 255 
-132.315 -156.175 -1249 47 23 20 255 
-130.667 -156.8 -1254 43 19 23 255 
-127.977 -156.175 -1249 40 25 21 255 
-125.808 -156.175 -1249 38 34 20 255 
-123.639 -156.175 -1249 36 27 26 255 
-121.956 -156.8 -1254 35 28 33 255 
-119.778 -156.8 -1254 34 24 22 255 
-117.6 -156.8 -1254 36 19 12 255 
-115.422 -156.8 -1254 39 20 14 255 
-113.245 -156.8 -1254 26 17 16 255 
-111.51 -157.425 -1259 14 19 18 255 
-109.323 -157.425 -1259 25 10 20 255 
-107.477 -157.926 -1263 36 13 24 255 
-105.7 -158.551 -1268 39 13 28 255 
-103.825 -159.051 -1272 42 12 25 255 
-102.015 -159.676 -1277 42 13 22 255 
-100.188 -160.301 -1282 42 11 15 255 
-98.6496 -161.427 -1291 35 8 9 255 
-97.1543 -162.677 -1301 29 12 8 255 
-94.5302 -162.052 -1296 29 10 8 255 
-92.6355 -162.677 -1301 29 15 9 255 
-90.0288 -162.052 -1296 26 17 11 255 
-87.7781 -162.052 -1296 23 20 17 255 
-85.5274 -162.052 -1296 32 21 24 255 
-82.9554 -161.427 -1291 42 28 31 255 
-80.7133 -161.427 -1291 46 35 39 255 
-78.2281 -160.926 -1287 51 42 35 255 
-75.9931 -160.926 -1287 55 50 31 255 
-73.758 -160.926 -1287 60 46 31 255 
-71.7452 -161.427 -1291 59 45 31 255 
-69.5031 -161.427 -1291 58 45 31 255 
-67.7821 -162.677 -1301 66 43 31 255 
-65.7745 -163.302 -1306 74 45 34 255 
-63.7496 -163.927 -1311 66 44 38 255 
-61.2383 -163.302 -1306 58 34 28 255 
-59.196 -163.927 -1311 54 32 19 255 
-56.9193 -163.927 -1311 51 28 20 255 
-54.8509 -164.553 -1316 42 28 21 255 
-52.5654 -164.553 -1316 33 25 23 255 
-50.662 -165.803 -1326 23 22 26 255 
-48.7239 -167.053 -1336 13 29 20 255 
-46.6121 -167.804 -1342 28 39 15 255 
-44.4465 -168.429 -1347 44 36 25 255 
-42.2635 -169.054 -1352 46 42 36 255 
-40.3879 -171.055 -1368 49 35 30 255 
-38.4845 -173.18 -1385 49 35 24 255 
-36.2095 -173.806 -1390 50 30 21 255 
-33.9414 -174.556 -1396 44 26 18 255 
-31.6525 -175.306 -1402 38 20 12 255 
-29.2177 -175.306 -1402 37 17 7 255 
-26.8784 -175.931 -1407 37 15 13 255 
-24.5391 -176.682 -1413 46 12 20 255 
-22.2727 -178.182 -1425 55 12 23 255 
-20.2148 -181.933 -1455 47 16 26 255 
-17.7609 -182.683 -1461 40 26 20 255 
-15.2861 -183.434 -1467 51 38 15 255 
-12.6863 -182.683 -1461 63 45 19 255 
-10.1908 -183.434 -1467 81 65 23 255 
-7.64307 -183.434 -1467 99 57 26 255 
-5.09538 -183.434 -1467 101 68 30 255 
-2.54769 -183.434 -1467 103 70 35 255 
10.1908 -183.434 -1467 95 99 52 255 
12.7385 -183.434 -1467 91 95 49 255 
15.2236 -182.683 -1461 86 115 47 255 
17.7609 -182.683 -1461 82 101 37 255 
20.2982 -182.683 -1461 73 113 27 255 
-355.176 -166.204 -1311 176 141 183 255 
-354.245 -166.838 -1316 99 3 93 255 
-351.96 -166.838 -1316 58 3 3 255 
-351.003 -167.472 -1321 18 1 2 255 
-348.709 -167.472 -1321 13 1 1 255 
-346.415 -167.472 -1321 8 1 51 255 
-345.423 -168.106 -1326 65 52 102 255 
-341.826 -167.472 -1321 123 115 135 255 
-339.532 -167.472 -1321 120 129 169 255 
-334.685 -166.204 -1311 117 123 166 255 
-332.408 -166.204 -1311 113 120 163 255 
-328.873 -165.57 -1306 109 125 149 255 
-324.104 -164.303 -1296 96 111 135 255 
-321.853 -164.303 -1296 83 112 157 255 
-318.369 -163.669 -1291 111 148 180 255 
-315.148 -163.162 -1287 139 167 196 255 
-312.913 -163.162 -1287 139 174 212 255 
-310.677 -163.162 -1287 139 201 193 255 
-308.442 -163.162 -1287 136 186 174 255 
-306.207 -163.162 -1287 134 204 159 255 
-302.791 -162.528 -1282 128 184 145 255 
-300.565 -162.528 -1282 123 198 121 255 
-298.339 -162.528 -1282 117 167 97 255 
-296.112 -162.528 -1282 111 160 103 255 
-293.886 -162.528 -1282 108 139 109 255 
-291.659 -162.528 -1282 105 154 113 255 
-289.433 -162.528 -1282 100 128 118 255 
-286.086 -161.894 -1277 96 113 117 255 
-284.98 -162.528 -1282 96 119 116 255 
-281.651 -161.894 -1277 97 122 109 255 
-279.433 -161.894 -1277 88 102 103 255 
-277.215 -161.894 -1277 80 91 100 255 
-274.998 -161.894 -1277 80 80 97 255 
-272.78 -161.894 -1277 81 79 96 255 
-270.562 -161.894 -1277 83 82 95 255 
-268.345 -161.894 -1277 85 85 97 255 
-266.127 -161.894 -1277 90 83 99 255 
-263.909 -161.894 -1277 96 85 103 255 
-261.691 -161.894 -1277 95 91 107 255 
-260.49 -162.528 -1282 95 100 92 255 
-258.263 -162.528 -1282 86 84 78 255 
-256.037 -162.528 -1282 78 90 140 255 
-253.81 -162.528 -1282 107 133 202 255 
-251.584 -162.528 -1282 137 174 207 255 
-250.33 -163.162 -1287 134 145 213 255 
-248.095 -163.162 -1287 132 172 140 255 
-246.624 -163.669 -1291 120 130 68 255 
-244.382 -163.669 -1291 108 93 61 255 
-242.14 -163.669 -1291 88 72 55 255 
-239.898 -163.669 -1291 69 60 30 255 
-237.656 -163.669 -1291 58 33 5 255 
-236.326 -164.303 -1296 47 5 3 255 
-234.075 -164.303 -1296 53 10 1 255 
-232.719 -164.936 -1301 59 18 46 255 
-230.459 -164.936 -1301 65 59 91 255 
-228.2 -164.936 -1301 72 80 89 255 
-225.94 -164.936 -1301 79 83 88 255 
-223.681 -164.936 -1301 87 94 107 255 
-221.422 -164.936 -1301 93 92 126 255 
-219.162 -164.936 -1301 100 90 135 255 
-216.903 -164.936 -1301 100 114 144 255 
-213.818 -164.303 -1296 101 123 150 255 
-210.751 -163.669 -1291 115 107 157 255 
-207.863 -163.162 -1287 130 139 151 255 
-204.829 -162.528 -1282 119 104 145 255 
-201.813 -161.894 -1277 109 124 134 255 
-199.595 -161.894 -1277 95 80 123 255 
-197.377 -161.894 -1277 81 74 113 255 
-194.396 -161.26 -1272 99 85 103 255 
-192.186 -161.26 -1272 117 89 122 255 
-189.977 -161.26 -1272 104 107 142 255 
-187.178 -160.753 -1268 92 103 132 255 
-184.976 -160.753 -1268 88 92 123 255 
-182.053 -160.119 -1263 85 92 124 255 
-179.86 -160.119 -1263 80 78 125 255 
-177.104 -159.612 -1259 76 79 119 255 
-174.917 -159.612 -1259 80 64 114 255 
-172.045 -158.978 -1254 84 77 117 255 
-169.867 -158.978 -1254 77 73 120 255 
-167.689 -158.978 -1254 70 87 86 255 
-165.511 -158.978 -1254 48 35 52 255 
-163.333 -158.978 -1254 27 17 45 255 
-160.513 -158.344 -1249 37 20 38 255 
-158.344 -158.344 -1249 47 24 50 255 
-156.175 -158.344 -1249 45 26 63 255 
-154.006 -158.344 -1249 44 29 43 255 
-151.837 -158.344 -1249 49 21 23 255 
-149.668 -158.344 -1249 55 10 12 255 
-147.499 -158.344 -1249 48 16 2 255 
-145.329 -158.344 -1249 42 5 17 255 
-143.16 -158.344 -1249 40 25 33 255 
-140.991 -158.344 -1249 39 31 24 255 
-138.822 -158.344 -1249 35 27 15 255 
-136.653 -158.344 -1249 31 33 17 255 
-134.484 -158.344 -1249 38 30 19 255 
-132.315 -158.344 -1249 45 29 22 255 
-130.667 -158.978 -1254 42 26 26 255 
-127.977 -158.344 -1249 39 29 20 255 
-125.808 -158.344 -1249 38 23 15 255 
-123.639 -158.344 -1249 37 17 19 255 
-121.956 -158.978 -1254 29 20 23 255 
-119.778 -158.978 -1254 22 25 12 255 
-117.6 -158.978 -1254 32 19 2 255 
-115.422 -158.978 -1254 42 16 7 255 
-113.245 -158.978 -1254 36 22 12 255 
-111.51 -159.612 -1259 30 26 16 255 
-109.323 -159.612 -1259 37 20 20 255 
-107.137 -159.612 -1259 45 19 28 255 
-105.7 -160.753 -1268 45 15 36 255 
-103.825 -161.26 -1272 46 7 30 255 
-102.015 -161.894 -1277 51 18 25 255 
-100.579 -163.162 -1287 56 7 17 255 
-98.6496 -163.669 -1291 47 22 10 255 
-96.781 -164.303 -1296 39 19 11 255 
-94.5302 -164.303 -1296 44 28 13 255 
-92.2795 -164.303 -1296 50 23 17 255 
-90.0288 -164.303 -1296 44 26 21 255 
-87.4394 -163.669 -1291 38 28 25 255 
-85.1974 -163.669 -1291 41 29 30 255 
-82.9554 -163.669 -1291 44 33 41 255 
-80.4632 -163.162 -1287 47 40 53 255 
-77.9242 -162.528 -1282 51 50 42 255 
-75.6978 -162.528 -1282 58 49 32 255 
-73.4714 -162.528 -1282 66 50 31 255 
-71.245 -162.528 -1282 60 48 30 255 
-69.2878 -163.162 -1287 55 49 30 255 
-67.2611 -163.669 -1291 57 48 31 255 
-65.5227 -164.936 -1301 59 54 29 255 
-63.5064 -165.57 -1306 54 34 28 255 
-61.2383 -165.57 -1306 50 24 20 255 
-59.196 -166.204 -1311 48 24 12 255 
-56.9193 -166.204 -1311 47 23 15 255 
-54.8509 -166.838 -1316 42 21 18 255 
-52.5654 -166.838 -1316 37 17 22 255 
-50.471 -167.472 -1321 30 24 26 255 
-48.5416 -168.74 -1331 24 30 23 255 
-46.6121 -170.134 -1342 33 34 20 255 
-44.4465 -170.768 -1347 42 39 33 255 
-42.2635 -171.402 -1352 44 35 47 255 
-40.8898 -175.586 -1385 47 33 35 255 
-38.6235 -176.22 -1390 47 27 23 255 
-36.2095 -176.22 -1390 48 20 17 255 
-33.9414 -176.98 -1396 42 18 12 255 
-31.517 -176.98 -1396 36 16 8 255 
-29.0926 -176.98 -1396 34 16 4 255 
-26.8784 -178.375 -1407 33 20 15 255 
-24.4349 -178.375 -1407 52 14 27 255 
-22.2727 -180.657 -1425 72 9 30 255 
-20.2148 -184.46 -1455 72 29 34 255 
-17.7609 -185.221 -1461 73 40 31 255 
-12.6863 -185.221 -1461 84 64 31 255 
10.1491 -185.221 -1461 82 98 67 255 
15.2236 -185.221 -1461 63 87 50 255 
17.688 -184.46 -1455 49 95 35 255 
20.2148 -184.46 -1455 40 73 21 255 
-352.899 -168.481 -1311 108 50 116 255 
-350.623 -168.481 -1311 63 1 49 255 
-349.674 -169.124 -1316 19 21 38 255 
-347.389 -169.124 -1316 16 1 27 255 
-345.103 -169.124 -1316 14 9 56 255 
-344.12 -169.766 -1321 68 19 85 255 
-340.533 -169.124 -1316 122 97 124 255 
-336.962 -168.481 -1311 116 159 163 255 
-333.409 -167.838 -1306 111 112 155 255 
-331.141 -167.838 -1306 100 85 147 255 
-327.613 -167.196 -1301 90 92 129 255 
-324.104 -166.553 -1296 82 77 111 255 
-320.611 -165.911 -1291 75 72 124 255 
-317.383 -165.397 -1287 79 76 138 255 
-315.148 -165.397 -1287 83 101 145 255 
-312.913 -165.397 -1287 86 76 153 255 
-310.677 -165.397 -1287 90 109 150 255 
-308.442 -165.397 -1287 110 153 147 255 
-306.207 -165.397 -1287 130 167 152 255 
-302.791 -164.754 -1282 142 209 157 255 
-300.565 -164.754 -1282 154 186 143 255 
-297.175 -164.112 -1277 143 207 129 255 
-294.957 -164.112 -1277 132 179 131 255 
-292.739 -164.112 -1277 122 179 133 255 
-291.659 -164.754 -1282 112 163 129 255 
-288.304 -164.112 -1277 104 144 126 255 
-286.086 -164.112 -1277 97 135 121 255 
-283.869 -164.112 -1277 95 127 117 255 
-281.651 -164.112 -1277 94 125 109 255 
-279.433 -164.112 -1277 91 116 102 255 
-277.215 -164.112 -1277 88 108 97 255 
-273.921 -163.469 -1272 86 88 93 255 
-271.712 -163.469 -1272 85 91 93 255 
-269.503 -163.469 -1272 86 80 93 255 
-267.294 -163.469 -1272 87 90 96 255 
-265.085 -163.469 -1272 92 77 99 255 
-262.876 -163.469 -1272 97 95 103 255 
-261.691 -164.112 -1277 105 103 107 255 
-259.474 -164.112 -1277 114 107 104 255 
-257.256 -164.112 -1277 113 128 101 255 
-256.037 -164.754 -1282 113 109 130 255 
-253.81 -164.754 -1282 112 111 160 255 
-251.584 -164.754 -1282 111 112 157 255 
-250.33 -165.397 -1287 108 76 155 255 
-248.095 -165.397 -1287 106 134 133 255 
-245.86 -165.397 -1287 142 180 112 255 
-243.625 -165.397 -1287 178 126 96 255 
-241.39 -165.397 -1287 127 87 81 255 
-239.155 -165.397 -1287 76 68 65 255 
-237.656 -165.911 -1291 69 34 49 255 
-235.414 -165.911 -1291 62 29 43 255 
-234.075 -166.553 -1296 58 1 38 255 
-231.824 -166.553 -1296 55 41 57 255 
-230.459 -167.196 -1301 59 60 77 255 
-228.2 -167.196 -1301 64 67 76 255 
-225.94 -167.196 -1301 74 61 75 255 
-223.681 -167.196 -1301 84 64 93 255 
-221.422 -167.196 -1301 92 72 112 255 
-219.162 -167.196 -1301 100 78 118 255 
-216.903 -167.196 -1301 91 102 124 255 
-213.818 -166.553 -1296 82 79 136 255 
-210.751 -165.911 -1291 101 27 148 255 
-207.863 -165.397 -1287 121 92 168 255 
-204.829 -164.754 -1282 105 19 189 255 
-201.813 -164.112 -1277 90 80 137 255 
-199.595 -164.112 -1277 65 1 85 255 
-196.605 -163.469 -1272 41 56 98 255 
-194.396 -163.469 -1272 78 97 112 255 
-192.186 -163.469 -1272 116 98 122 255 
-189.38 -162.955 -1268 92 103 132 255 
-187.178 -162.955 -1268 69 83 119 255 
-184.246 -162.312 -1263 76 73 107 255 
-182.053 -162.312 -1263 84 75 96 255 
-179.29 -161.798 -1259 76 65 86 255 
-177.104 -161.798 -1259 68 64 92 255 
-174.222 -161.156 -1254 75 71 98 255 
-172.045 -161.156 -1254 82 60 95 255 
-169.867 -161.156 -1254 70 39 92 255 
-167.689 -161.156 -1254 59 32 74 255 
-165.511 -161.156 -1254 33 4 57 255 
-163.333 -161.156 -1254 7 18 59 255 
-160.513 -160.513 -1249 21 18 61 255 
-158.344 -160.513 -1249 36 33 63 255 
-156.175 -160.513 -1249 39 9 65 255 
-154.006 -160.513 -1249 42 36 59 255 
-151.837 -160.513 -1249 52 19 54 255 
-149.668 -160.513 -1249 63 38 48 255 
-147.499 -160.513 -1249 58 42 42 255 
-145.329 -160.513 -1249 53 42 42 255 
-143.16 -160.513 -1249 50 53 43 255 
-140.991 -160.513 -1249 48 37 33 255 
-138.822 -160.513 -1249 46 30 24 255 
-136.653 -160.513 -1249 44 30 25 255 
-134.484 -160.513 -1249 44 33 27 255 
-132.845 -161.156 -1254 44 31 29 255 
-130.667 -161.156 -1254 41 28 32 255 
-128.489 -161.156 -1254 39 27 26 255 
-126.311 -161.156 -1254 39 14 21 255 
-124.133 -161.156 -1254 39 13 24 255 
-121.956 -161.156 -1254 24 11 28 255 
-119.778 -161.156 -1254 10 20 27 255 
-117.6 -161.156 -1254 28 20 27 255 
-115.422 -161.156 -1254 46 26 24 255 
-113.245 -161.156 -1254 46 29 22 255 
-111.51 -161.798 -1259 47 30 25 255 
-109.323 -161.798 -1259 51 29 29 255 
-107.137 -161.798 -1259 55 24 36 255 
-105.7 -162.955 -1268 53 22 43 255 
-103.825 -163.469 -1272 51 35 38 255 
-102.015 -164.112 -1277 60 47 34 255 
-100.579 -165.397 -1287 70 43 24 255 
-98.6496 -165.911 -1291 59 55 15 255 
-96.781 -166.553 -1296 49 45 18 255 
-94.5302 -166.553 -1296 60 62 22 255 
-92.2795 -166.553 -1296 72 41 29 255 
-89.6815 -165.911 -1291 62 39 37 255 
-87.4394 -165.911 -1291 53 36 33 255 
-84.9334 -165.397 -1287 50 36 30 255 
-82.6983 -165.397 -1287 47 38 35 255 
-80.4632 -165.397 -1287 49 45 41 255 
-77.6203 -164.112 -1277 51 46 35 255 
-75.4026 -164.112 -1277 62 47 29 255 
-73.1849 -164.112 -1277 73 47 29 255 
-70.9671 -164.112 -1277 62 49 29 255 
-69.0186 -164.754 -1282 52 46 28 255 
-66.7922 -164.754 -1282 48 49 27 255 
-65.0191 -165.911 -1291 45 35 25 255 
-63.2633 -167.196 -1301 43 16 23 255 
-61.0039 -167.196 -1301 42 18 15 255 
-59.196 -168.481 -1311 42 18 8 255 
-56.9193 -168.481 -1311 43 21 14 255 
-54.6425 -168.481 -1311 42 17 21 255 
-52.5654 -169.124 -1316 42 24 27 255 
-50.471 -169.766 -1321 39 30 33 255 
-48.5416 -171.051 -1331 36 29 23 255 
-46.7858 -173.107 -1347 38 29 14 255 
-44.6115 -173.75 -1352 40 29 24 255 
-42.9512 -176.577 -1374 43 26 34 255 
-40.8898 -177.991 -1385 46 26 28 255 
-38.6235 -178.634 -1390 46 22 23 255 
-36.2095 -178.634 -1390 46 17 19 255 
-33.7955 -178.634 -1390 40 12 16 255 
-31.517 -179.405 -1396 34 13 14 255 
-29.0926 -179.405 -1396 32 13 12 255 
-26.7829 -180.176 -1402 30 17 20 255 
-24.4349 -180.818 -1407 60 17 28 255 
-22.2727 -183.132 -1425 90 31 30 255 
-20.2148 -186.987 -1455 98 53 32 255 
-17.7609 -187.758 -1461 107 62 33 255 
-15.2236 -187.758 -1461 106 78 34 255 
-12.6863 -187.758 -1461 106 79 37 255 
10.1074 -186.987 -1455 70 77 49 255 
15.1611 -186.987 -1455 40 30 37 255 
-356.09 -170.106 -1306 254 243 219 255 
-353.822 -170.106 -1306 197 159 186 255 
-351.553 -170.106 -1306 140 50 140 255 
-350.623 -170.758 -1311 104 51 95 255 
-348.346 -170.758 -1311 69 84 74 255 
-346.069 -170.758 -1311 67 58 54 255 
-343.792 -170.758 -1311 65 18 61 255 
-341.516 -170.758 -1311 90 58 69 255 
-339.239 -170.758 -1311 116 98 113 255 
-335.677 -170.106 -1306 113 112 157 255 
-332.132 -169.455 -1301 110 83 144 255 
-329.873 -169.455 -1301 99 84 131 255 
-326.354 -168.804 -1296 88 82 109 255 
-322.853 -168.153 -1291 81 51 87 255 
-320.611 -168.153 -1291 74 26 92 255 
-317.383 -167.632 -1287 70 58 97 255 
-315.148 -167.632 -1287 66 86 95 255 
-312.913 -167.632 -1287 61 42 94 255 
-309.471 -166.98 -1282 57 9 107 255 
-307.244 -166.98 -1282 63 67 121 255 
-306.207 -167.632 -1287 69 105 145 255 
-302.791 -166.98 -1282 84 118 170 255 
-300.565 -166.98 -1282 99 133 165 255 
-297.175 -166.329 -1277 102 141 161 255 
-294.957 -166.329 -1277 106 171 159 255 
-292.739 -166.329 -1277 103 167 157 255 
-291.659 -166.98 -1282 101 179 146 255 
-288.304 -166.329 -1277 100 155 135 255 
-286.086 -166.329 -1277 100 158 126 255 
-283.869 -166.329 -1277 101 140 118 255 
-281.651 -166.329 -1277 102 136 109 255 
-278.339 -165.678 -1272 103 138 101 255 
-276.13 -165.678 -1272 104 139 95 255 
-273.921 -165.678 -1272 99 124 89 255 
-271.712 -165.678 -1272 94 119 90 255 
-269.503 -165.678 -1272 93 115 92 255 
-267.294 -165.678 -1272 92 119 95 255 
-265.085 -165.678 -1272 91 116 99 255 
-262.876 -165.678 -1272 91 117 103 255 
-260.667 -165.678 -1272 98 116 107 255 
-258.458 -165.678 -1272 105 101 115 255 
-255.443 -165.157 -1268 105 119 124 255 
-254.04 -165.678 -1272 106 109 121 255 
-251.831 -165.678 -1272 120 112 119 255 
-250.603 -166.329 -1277 135 89 108 255 
-248.385 -166.329 -1277 114 94 97 255 
-246.167 -166.329 -1277 94 109 126 255 
-244.905 -166.98 -1282 133 138 156 255 
-242.678 -166.98 -1282 173 147 131 255 
-240.452 -166.98 -1282 135 116 107 255 
-238.226 -166.98 -1282 98 93 100 255 
-235.999 -166.98 -1282 93 68 94 255 
-234.684 -167.632 -1287 88 80 84 255 
-232.449 -167.632 -1287 89 75 75 255 
-230.214 -167.632 -1287 91 89 69 255 
-228.688 -168.153 -1291 93 77 63 255 
-226.446 -168.153 -1291 95 68 62 255 
-224.204 -168.153 -1291 79 45 62 255 
-221.962 -168.153 -1291 63 33 80 255 
-219.72 -168.153 -1291 68 38 98 255 
-217.478 -168.153 -1291 73 50 101 255 
-215.236 -168.153 -1291 108 54 104 255 
-212.993 -168.153 -1291 143 66 121 255 
