ply
format ascii 1.0
comment VCGLIB generated
element vertex 1256
property float x
property float y
property float z
property uchar red
property uchar green
property uchar blue
property uchar alpha
element face 0
property list uchar int vertex_indices
end_header
-127.013 -167.838 -1306 75 82 94 255 
-124.267 -167.196 -1301 72 63 95 255 
-121.539 -166.553 -1296 52 40 96 255 
-118.828 -165.911 -1291 32 50 87 255 
-116.225 -165.397 -1287 43 23 78 255 
-113.99 -165.397 -1287 55 47 89 255 
-111.32 -164.754 -1282 66 60 101 255 
-108.668 -164.112 -1277 78 71 103 255 
-106.034 -163.469 -1272 85 81 105 255 
-103.825 -163.469 -1272 93 92 104 255 
-101.616 -163.469 -1272 101 106 104 255 
-99.4068 -163.469 -1272 110 94 88 255 
-96.8921 -162.955 -1268 97 85 73 255 
-94.69 -162.955 -1268 84 72 70 255 
-92.1232 -162.312 -1263 71 76 67 255 
-89.9298 -162.312 -1263 58 63 65 255 
-87.4585 -161.798 -1259 56 63 63 255 
-85.2721 -161.798 -1259 55 50 58 255 
-83.0856 -161.798 -1259 52 31 54 255 
-80.5779 -161.156 -1254 50 39 54 255 
-78.4001 -161.156 -1254 34 10 54 255 
-76.2223 -161.156 -1254 19 24 50 255 
-73.7493 -160.513 -1249 10 1 46 255 
-71.5802 -160.513 -1249 1 21 53 255 
-69.4111 -160.513 -1249 25 14 61 255 
-67.242 -160.513 -1249 50 39 69 255 
-65.0729 -160.513 -1249 57 46 78 255 
-62.9038 -160.513 -1249 65 54 77 255 
-60.5402 -159.999 -1245 68 56 77 255 
-58.378 -159.999 -1245 71 57 73 255 
-56.2159 -159.999 -1245 70 59 69 255 
-54.0537 -159.999 -1245 69 53 66 255 
-51.8916 -159.999 -1245 62 50 63 255 
-49.5297 -159.357 -1240 56 58 71 255 
-47.3763 -159.357 -1240 58 69 80 255 
-45.2228 -159.357 -1240 61 61 65 255 
-43.0693 -159.357 -1240 57 43 50 255 
-40.9159 -159.357 -1240 53 48 47 255 
-38.7624 -159.357 -1240 50 40 44 255 
-36.6089 -159.357 -1240 47 33 38 255 
-34.4555 -159.357 -1240 48 31 33 255 
-32.302 -159.357 -1240 49 24 28 255 
-30.1485 -159.357 -1240 44 17 24 255 
-27.9951 -159.357 -1240 39 16 20 255 
-25.9458 -159.999 -1245 35 16 17 255 
-23.7836 -159.999 -1245 32 11 14 255 
-21.5347 -159.357 -1240 29 4 11 255 
-19.4594 -159.999 -1245 26 6 10 255 
-17.3528 -160.513 -1249 17 9 10 255 
-15.1837 -160.513 -1249 9 6 6 255 
-13.0146 -160.513 -1249 15 1 3 255 
-10.8889 -161.156 -1254 22 8 25 255 
-8.71112 -161.156 -1254 42 26 47 255 
-6.53334 -161.156 -1254 63 53 60 255 
-4.35556 -161.156 -1254 75 96 73 255 
-2.1691 -160.513 -1249 88 89 88 255 
0 -160.513 -1249 83 94 104 255 
2.1691 -160.513 -1249 79 88 100 255 
4.35556 -161.156 -1254 77 77 96 255 
6.55939 -161.798 -1259 76 68 85 255 
8.74585 -161.798 -1259 72 54 74 255 
10.7326 -158.842 -1236 68 53 57 255 
12.8791 -158.842 -1236 44 38 40 255 
15.0256 -158.842 -1236 21 24 42 255 
17.1722 -158.842 -1236 25 1 45 255 
19.3187 -158.842 -1236 30 41 67 255 
21.4652 -158.842 -1236 68 96 89 255 
23.6117 -158.842 -1236 107 93 102 255 
25.7582 -158.842 -1236 87 78 115 255 
27.9048 -158.842 -1236 67 66 102 255 
30.0513 -158.842 -1236 42 39 89 255 
32.1978 -158.842 -1236 17 38 103 255 
34.3443 -158.842 -1236 9 8 118 255 
36.4908 -158.842 -1236 2 97 134 255 
38.6374 -158.842 -1236 40 159 151 255 
40.7839 -158.842 -1236 79 174 165 255 
42.7915 -158.328 -1232 97 207 179 255 
44.931 -158.328 -1232 116 213 185 255 
47.0706 -158.328 -1232 112 224 191 255 
49.2102 -158.328 -1232 109 229 187 255 
51.3498 -158.328 -1232 116 253 183 255 
53.4893 -158.328 -1232 124 230 159 255 
55.8095 -158.842 -1236 112 227 135 255 
57.956 -158.842 -1236 100 166 104 255 
60.2971 -159.357 -1240 92 116 74 255 
62.4505 -159.357 -1240 85 136 79 255 
64.604 -159.357 -1240 87 151 84 255 
73.1345 -169.124 -1316 52 107 43 255 
75.42 -169.124 -1316 15 68 24 255 
77.7054 -169.124 -1316 9 4 6 255 
79.9909 -169.124 -1316 4 35 17 255 
82.5889 -169.766 -1321 24 48 28 255 
84.5618 -169.124 -1316 45 49 33 255 
87.1772 -169.766 -1321 83 71 39 255 
89.4713 -169.766 -1321 121 72 51 255 
92.4601 -171.051 -1331 125 104 63 255 
95.1277 -171.694 -1336 130 92 73 255 
97.8855 -172.465 -1342 129 95 84 255 
100.216 -172.465 -1342 129 95 82 255 
102.547 -172.465 -1342 133 98 81 255 
105.268 -173.107 -1347 137 101 80 255 
112.102 -165.911 -1291 124 40 43 255 
114.344 -165.911 -1291 117 172 148 255 
116.225 -165.397 -1287 172 254 253 255 
118.46 -165.397 -1287 228 251 206 255 
120.695 -165.397 -1287 188 242 160 255 
122.93 -165.397 -1287 148 141 102 255 
125.165 -165.397 -1287 152 77 45 255 
-298.168 -189.514 -1455 120 76 82 255 
-294.422 -188.732 -1449 69 55 90 255 
-290.697 -187.951 -1443 79 71 98 255 
-285.795 -186.388 -1431 90 84 108 255 
-282.121 -185.606 -1425 91 83 119 255 
-278.469 -184.825 -1419 93 85 119 255 
-274.838 -184.043 -1413 99 86 120 255 
-271.227 -183.262 -1407 105 89 118 255 
-267.829 -182.611 -1402 94 86 116 255 
-264.258 -181.829 -1396 83 87 116 255 
-261.834 -181.829 -1396 86 82 116 255 
-259.409 -181.829 -1396 90 74 113 255 
-255.88 -181.048 -1390 90 77 111 255 
-253.466 -181.048 -1390 91 86 113 255 
-251.053 -181.048 -1390 98 89 116 255 
-248.639 -181.048 -1390 106 95 119 255 
-245.339 -180.396 -1385 100 93 122 255 
-242.934 -180.396 -1385 94 92 119 255 
-239.486 -179.615 -1379 95 92 117 255 
-236.232 -178.964 -1374 96 94 112 255 
-233.846 -178.964 -1374 92 85 108 255 
-230.449 -178.182 -1368 88 79 106 255 
-228.073 -178.182 -1368 86 79 104 255 
-224.872 -177.531 -1363 84 80 105 255 
-221.689 -176.88 -1358 81 82 106 255 
-218.362 -176.098 -1352 78 89 104 255 
-215.215 -175.447 -1347 78 74 103 255 
-212.085 -174.796 -1342 78 60 90 255 
-209.755 -174.796 -1342 75 59 78 255 
-206.497 -174.014 -1336 73 60 72 255 
-202.648 -172.712 -1326 66 55 67 255 
-199.59 -172.06 -1321 59 32 59 255 
-196.549 -171.409 -1316 57 40 51 255 
-194.264 -171.409 -1316 56 31 36 255 
-191.249 -170.758 -1311 51 25 21 255 
-188.972 -170.758 -1311 46 17 30 255 
-186.695 -170.758 -1311 37 26 40 255 
-184.418 -170.758 -1311 29 35 45 255 
-181.447 -170.106 -1306 38 36 50 255 
-179.179 -170.106 -1306 47 32 60 255 
-176.233 -169.455 -1301 51 45 70 255 
-173.974 -169.455 -1301 55 54 87 255 
-171.055 -168.804 -1296 65 59 105 255 
-168.804 -168.804 -1296 75 76 116 255 
-166.553 -168.804 -1296 79 83 127 255 
-163.669 -168.153 -1291 84 94 131 255 
-161.427 -168.153 -1291 94 91 135 255 
-159.185 -168.153 -1291 104 101 143 255 
-156.943 -168.153 -1291 100 100 151 255 
-154.701 -168.153 -1291 96 107 143 255 
-153.049 -168.804 -1296 98 97 135 255 
-151.38 -169.455 -1301 101 95 106 255 
-149.694 -170.106 -1306 82 79 78 255 
-147.99 -170.758 -1311 64 67 71 255 
-145.713 -170.758 -1311 70 64 65 255 
-143.437 -170.758 -1311 77 53 78 255 
-141.16 -170.758 -1311 69 58 91 255 
-138.883 -170.758 -1311 62 61 88 255 
-136.606 -170.758 -1311 65 63 85 255 
-134.329 -170.758 -1311 68 67 86 255 
-132.053 -170.758 -1311 70 67 87 255 
-129.281 -170.106 -1306 72 73 88 255 
-127.013 -170.106 -1306 74 76 90 255 
-124.267 -169.455 -1301 76 84 89 255 
-122.008 -169.455 -1301 64 66 89 255 
-119.288 -168.804 -1296 53 53 57 255 
-116.225 -167.632 -1287 58 38 26 255 
-113.99 -167.632 -1287 63 6 46 255 
-111.32 -166.98 -1282 65 26 66 255 
-108.668 -166.329 -1277 68 37 77 255 
-106.451 -166.329 -1277 58 47 88 255 
-103.825 -165.678 -1272 48 69 94 255 
-101.616 -165.678 -1272 55 65 101 255 
-99.4068 -165.678 -1272 63 87 94 255 
-96.8921 -165.157 -1268 52 62 88 255 
-94.69 -165.157 -1268 42 77 79 255 
-92.1232 -164.506 -1263 36 53 71 255 
-89.9298 -164.506 -1263 31 60 65 255 
-87.4585 -163.985 -1259 40 44 59 255 
-85.2721 -163.985 -1259 49 35 33 255 
-83.0856 -163.985 -1259 49 36 7 255 
-80.5779 -163.333 -1254 49 30 4 255 
-78.4001 -163.333 -1254 43 28 1 255 
-76.2223 -163.333 -1254 37 2 1 255 
-73.7493 -162.682 -1249 31 13 2 255 
-71.5802 -162.682 -1249 25 3 23 255 
-69.4111 -162.682 -1249 41 28 44 255 
-67.242 -162.682 -1249 57 37 59 255 
-65.0729 -162.682 -1249 66 58 75 255 
-62.9038 -162.682 -1249 76 66 75 255 
-60.7347 -162.682 -1249 72 65 76 255 
-58.378 -162.161 -1245 69 65 73 255 
-55.9901 -161.51 -1240 66 60 71 255 
-53.8367 -161.51 -1240 64 53 64 255 
-51.6832 -161.51 -1240 59 53 58 255 
-49.37 -160.989 -1236 55 58 58 255 
-47.2234 -160.989 -1236 55 46 59 255 
-45.0769 -160.989 -1236 55 34 40 255 
-42.9304 -160.989 -1236 50 32 22 255 
-40.7839 -160.989 -1236 46 22 24 255 
-38.6374 -160.989 -1236 42 26 27 255 
-36.4908 -160.989 -1236 39 21 26 255 
-34.3443 -160.989 -1236 40 20 25 255 
-32.1978 -160.989 -1236 41 15 22 255 
-30.0513 -160.989 -1236 37 13 19 255 
-27.9951 -161.51 -1240 33 11 17 255 
-25.8416 -161.51 -1240 30 10 16 255 
-23.6881 -161.51 -1240 27 8 13 255 
-21.5347 -161.51 -1240 28 5 11 255 
-19.4594 -162.161 -1245 29 8 15 255 
-17.2972 -162.161 -1245 17 5 19 255 
-15.135 -162.161 -1245 6 3 10 255 
-12.9729 -162.161 -1245 31 19 1 255 
-10.8455 -162.682 -1249 57 5 47 255 
-8.67639 -162.682 -1249 71 53 93 255 
-6.53334 -163.333 -1254 86 90 108 255 
-4.33819 -162.682 -1249 84 90 123 255 
-2.16215 -162.161 -1245 83 100 109 255 
0 -162.161 -1245 79 80 95 255 
2.16215 -162.161 -1245 76 83 79 255 
4.3243 -162.161 -1245 59 65 63 255 
6.4604 -161.51 -1240 42 52 53 255 
8.58608 -160.989 -1236 40 35 44 255 
10.6979 -160.468 -1232 39 37 22 255 
12.8374 -160.468 -1232 38 19 1 255 
14.977 -160.468 -1232 38 3 22 255 
17.1166 -160.468 -1232 50 40 44 255 
19.2562 -160.468 -1232 63 65 92 255 
21.3957 -160.468 -1232 82 89 140 255 
23.5353 -160.468 -1232 101 118 125 255 
25.6749 -160.468 -1232 89 87 110 255 
27.8145 -160.468 -1232 78 84 101 255 
29.954 -160.468 -1232 61 61 93 255 
32.0936 -160.468 -1232 44 57 63 255 
34.2332 -160.468 -1232 35 29 34 255 
36.3727 -160.468 -1232 26 10 65 255 
38.5123 -160.468 -1232 38 66 97 255 
40.6519 -160.468 -1232 51 97 117 255 
42.7915 -160.468 -1232 58 138 138 255 
44.931 -160.468 -1232 66 170 150 255 
47.0706 -160.468 -1232 70 179 163 255 
49.2102 -160.468 -1232 75 188 162 255 
51.3498 -160.468 -1232 87 195 162 255 
53.4893 -160.468 -1232 99 198 169 255 
55.6289 -160.468 -1232 100 197 176 255 
57.7685 -160.468 -1232 101 199 131 255 
60.1026 -160.989 -1236 94 157 87 255 
62.2491 -160.989 -1236 87 127 80 255 
64.3956 -160.989 -1236 89 146 74 255 
66.5421 -160.989 -1236 91 154 79 255 
68.6886 -160.989 -1236 74 132 85 255 
75.7065 -172.06 -1321 57 114 43 255 
78.0006 -172.06 -1321 44 59 1 255 
79.9909 -171.409 -1316 31 40 19 255 
82.5889 -172.06 -1321 40 51 37 255 
84.8831 -172.06 -1321 49 66 52 255 
87.1772 -172.06 -1321 84 76 67 255 
89.4713 -172.06 -1321 119 101 73 255 
92.4601 -173.363 -1331 124 96 80 255 
95.5549 -174.796 -1342 129 94 83 255 
98.2502 -175.447 -1347 131 94 87 255 
125.821 -188.732 -1449 131 77 1 255 
113.99 -167.632 -1287 124 147 126 255 
116.225 -167.632 -1287 171 227 252 255 
118.46 -167.632 -1287 219 254 215 255 
120.695 -167.632 -1287 181 221 179 255 
122.93 -167.632 -1287 144 144 111 255 
125.165 -167.632 -1287 148 99 43 255 
-303.175 -193.624 -1467 199 156 165 255 
-299.398 -192.833 -1461 141 96 115 255 
-294.422 -191.249 -1449 83 66 110 255 
-290.697 -190.457 -1443 89 69 105 255 
-286.993 -189.665 -1437 96 79 113 255 
-284.497 -189.665 -1437 94 81 121 255 
-280.824 -188.873 -1431 93 82 120 255 
-276.005 -187.289 -1419 95 84 120 255 
-272.384 -186.497 -1413 98 84 123 255 
-268.784 -185.705 -1407 94 85 127 255 
-265.394 -185.045 -1402 90 85 122 255 
-261.834 -184.253 -1396 90 85 118 255 
-259.409 -184.253 -1396 91 76 113 255 
-255.88 -183.461 -1390 89 59 109 255 
-253.466 -183.461 -1390 87 76 109 255 
-251.053 -183.461 -1390 99 86 109 255 
-248.639 -183.461 -1390 112 90 113 255 
-245.339 -182.802 -1385 104 92 118 255 
-242.934 -182.802 -1385 97 90 120 255 
-240.528 -182.802 -1385 101 91 123 255 
-237.091 -182.01 -1379 106 90 118 255 
-233.846 -181.35 -1374 100 89 114 255 
-231.459 -181.35 -1374 94 84 112 255 
-228.073 -180.558 -1368 91 83 110 255 
-225.697 -180.558 -1368 89 81 109 255 
-222.505 -179.898 -1363 87 82 109 255 
-219.331 -179.238 -1358 86 84 107 255 
-216.972 -179.238 -1358 93 85 105 255 
-213.666 -178.446 -1352 101 80 101 255 
-210.536 -177.786 -1347 92 91 98 255 
-208.197 -177.786 -1347 83 81 97 255 
-204.176 -176.334 -1336 84 89 96 255 
-201.101 -175.674 -1331 85 69 87 255 
-198.043 -175.014 -1326 77 67 78 255 
-195.002 -174.354 -1321 70 52 62 255 
-191.978 -173.694 -1316 60 34 47 255 
-189.693 -173.694 -1316 51 28 49 255 
-186.695 -173.035 -1311 33 24 51 255 
-184.418 -173.035 -1311 16 28 51 255 
-181.447 -172.375 -1306 31 29 52 255 
-179.179 -172.375 -1306 47 29 50 255 
-176.911 -172.375 -1306 48 28 48 255 
-173.974 -171.715 -1301 49 35 64 255 
-171.055 -171.055 -1296 56 40 80 255 
-168.804 -171.055 -1296 63 48 90 255 
-166.553 -171.055 -1296 67 60 100 255 
-163.669 -170.395 -1291 72 63 105 255 
-161.427 -170.395 -1291 81 68 111 255 
-159.185 -170.395 -1291 90 81 122 255 
-156.943 -170.395 -1291 95 92 133 255 
-154.701 -170.395 -1291 100 97 133 255 
-152.458 -170.395 -1291 108 106 133 255 
-150.798 -171.055 -1296 116 100 120 255 
-148.548 -171.055 -1296 110 102 108 255 
-146.861 -171.715 -1301 104 92 102 255 
-145.158 -172.375 -1306 95 89 97 255 
-142.889 -172.375 -1306 86 70 92 255 
-140.621 -172.375 -1306 68 51 87 255 
-138.883 -173.035 -1311 51 52 76 255 
-136.606 -173.035 -1311 58 55 65 255 
-133.817 -172.375 -1306 65 55 74 255 
-131.549 -172.375 -1306 65 57 83 255 
-129.281 -172.375 -1306 66 65 82 255 
-126.527 -171.715 -1301 73 66 81 255 
-124.267 -171.715 -1301 80 75 87 255 
-121.539 -171.055 -1296 77 91 94 255 
-118.828 -170.395 -1291 74 73 84 255 
-116.225 -169.867 -1287 72 74 74 255 
-113.99 -169.867 -1287 71 39 70 255 
-111.32 -169.207 -1282 65 4 67 255 
-108.668 -168.547 -1277 59 12 62 255 
-106.451 -168.547 -1277 31 1 58 255 
-103.825 -167.887 -1272 4 18 55 255 
-101.616 -167.887 -1272 10 1 52 255 
-99.4068 -167.887 -1272 16 23 62 255 
-96.8921 -167.359 -1268 8 1 72 255 
-94.69 -167.359 -1268 1 32 72 255 
-92.1232 -166.699 -1263 3 1 72 255 
-89.9298 -166.699 -1263 5 32 69 255 
-87.4585 -166.171 -1259 24 19 67 255 
-85.2721 -166.171 -1259 44 43 56 255 
-82.7556 -165.511 -1254 46 49 45 255 
-80.5779 -165.511 -1254 49 56 45 255 
-78.4001 -165.511 -1254 52 72 46 255 
-76.2223 -165.511 -1254 55 48 43 255 
-73.7493 -164.851 -1249 52 49 41 255 
-71.5802 -164.851 -1249 50 47 55 255 
-69.4111 -164.851 -1249 57 61 70 255 
-67.242 -164.851 -1249 64 68 71 255 
-65.0729 -164.851 -1249 76 84 73 255 
-62.9038 -164.851 -1249 88 71 76 255 
-60.5402 -164.323 -1245 78 77 79 255 
-58.378 -164.323 -1245 68 70 73 255 
-55.9901 -163.663 -1240 64 64 68 255 
-53.8367 -163.663 -1240 60 57 61 255 
-51.6832 -163.663 -1240 57 54 55 255 
-49.37 -163.136 -1236 55 41 51 255 
-47.3763 -163.663 -1240 52 25 48 255 
-45.0769 -163.136 -1236 49 28 36 255 
-42.9304 -163.136 -1236 44 30 24 255 
-40.7839 -163.136 -1236 40 22 22 255 
-38.6374 -163.136 -1236 36 24 20 255 
-36.4908 -163.136 -1236 32 19 18 255 
-34.3443 -163.136 -1236 33 16 17 255 
-32.1978 -163.136 -1236 34 13 14 255 
-30.0513 -163.136 -1236 30 12 11 255 
-27.9951 -163.663 -1240 27 9 11 255 
-25.8416 -163.663 -1240 24 7 12 255 
-23.6881 -163.663 -1240 22 7 11 255 
-21.5347 -163.663 -1240 27 3 11 255 
-19.4594 -164.323 -1245 33 3 19 255 
-17.2972 -164.323 -1245 18 1 28 255 
-15.135 -164.323 -1245 3 35 41 255 
-13.0146 -164.851 -1249 47 69 55 255 
-10.8455 -164.851 -1249 92 66 78 255 
-8.67639 -164.851 -1249 100 95 101 255 
-6.50729 -164.851 -1249 109 84 93 255 
-4.33819 -164.851 -1249 94 77 86 255 
-2.15347 -163.663 -1240 79 66 80 255 
0 -163.663 -1240 76 47 75 255 
2.15347 -163.663 -1240 73 50 63 255 
4.29304 -163.136 -1236 41 49 51 255 
6.41872 -162.608 -1232 9 29 36 255 
8.55829 -162.608 -1232 9 1 22 255 
10.6544 -161.948 -1227 10 22 36 255 
12.7853 -161.948 -1227 32 1 50 255 
14.9162 -161.948 -1227 55 52 57 255 
17.0471 -161.948 -1227 75 92 65 255 
19.178 -161.948 -1227 96 82 94 255 
21.3089 -161.948 -1227 95 78 124 255 
23.4398 -161.948 -1227 95 83 113 255 
25.5707 -161.948 -1227 92 71 102 255 
27.8145 -162.608 -1232 89 69 94 255 
29.954 -162.608 -1232 80 65 86 255 
32.0936 -162.608 -1232 72 55 67 255 
34.2332 -162.608 -1232 61 44 49 255 
36.3727 -162.608 -1232 50 20 57 255 
38.5123 -162.608 -1232 36 2 66 255 
40.6519 -162.608 -1232 23 48 74 255 
42.7915 -162.608 -1232 20 80 83 255 
44.931 -162.608 -1232 17 100 100 255 
47.0706 -162.608 -1232 29 135 118 255 
49.2102 -162.608 -1232 42 136 118 255 
51.3498 -162.608 -1232 58 142 118 255 
53.4893 -162.608 -1232 74 149 128 255 
55.6289 -162.608 -1232 88 165 139 255 
57.7685 -162.608 -1232 103 174 118 255 
60.1026 -163.136 -1236 96 187 98 255 
62.2491 -163.136 -1236 89 156 89 255 
64.3956 -163.136 -1236 91 153 81 255 
66.5421 -163.136 -1236 93 152 83 255 
68.6886 -163.136 -1236 96 153 85 255 
78.2959 -175.014 -1326 79 79 1 255 
80.2948 -174.354 -1321 59 55 19 255 
82.5889 -174.354 -1321 56 51 37 255 
116.225 -169.867 -1287 170 254 245 255 
118.46 -169.867 -1287 210 252 203 255 
120.695 -169.867 -1287 175 246 162 255 
122.452 -169.207 -1282 141 143 102 255 
124.679 -169.207 -1282 144 78 42 255 
-299.398 -195.37 -1461 152 121 148 255 
-295.641 -194.567 -1455 94 47 130 255 
-291.906 -193.765 -1449 93 63 112 255 
-288.191 -192.963 -1443 93 82 117 255 
-284.497 -192.16 -1437 92 81 123 255 
-280.824 -191.358 -1431 92 82 122 255 
-278.339 -191.358 -1431 94 81 121 255 
-273.541 -189.753 -1419 96 81 129 255 
-269.93 -188.951 -1413 94 81 138 255 
-266.34 -188.149 -1407 93 83 129 255 
-262.959 -187.48 -1402 93 84 121 255 
-259.409 -186.678 -1396 94 86 114 255 
-255.88 -185.875 -1390 84 76 108 255 
-253.466 -185.875 -1390 75 77 105 255 
-251.053 -185.875 -1390 87 78 103 255 
-248.639 -185.875 -1390 100 87 109 255 
-245.339 -185.207 -1385 95 88 115 255 
-242.934 -185.207 -1385 91 88 122 255 
-239.486 -184.404 -1379 95 88 129 255 
-236.232 -183.736 -1374 99 87 124 255 
-233.846 -183.736 -1374 95 87 120 255 
-230.449 -182.934 -1368 92 88 118 255 
-228.073 -182.934 -1368 91 85 117 255 
-225.697 -182.934 -1368 91 82 114 255 
-222.505 -182.265 -1363 88 81 112 255 
-220.138 -182.265 -1363 86 81 110 255 
-216.972 -181.596 -1358 90 82 108 255 
-213.666 -180.794 -1352 95 85 113 255 
-211.318 -180.794 -1352 89 84 119 255 
-208.197 -180.125 -1347 84 86 122 255 
-205.858 -180.125 -1347 86 85 125 255 
-201.101 -177.986 -1331 89 90 115 255 
-198.789 -177.986 -1331 83 77 105 255 
-195.74 -177.317 -1326 78 77 89 255 
-192.707 -176.649 -1321 69 56 74 255 
-189.693 -175.98 -1316 61 37 68 255 
-187.407 -175.98 -1316 49 33 62 255 
-184.418 -175.311 -1311 38 25 58 255 
-182.142 -175.311 -1311 45 30 54 255 
-179.179 -174.643 -1306 53 30 40 255 
-176.911 -174.643 -1306 43 29 27 255 
-173.974 -173.974 -1301 34 20 41 255 
-171.055 -173.305 -1296 45 25 55 255 
-168.153 -172.637 -1291 56 19 64 255 
-165.911 -172.637 -1291 48 31 73 255 
-163.669 -172.637 -1291 40 30 80 255 
-161.427 -172.637 -1291 58 47 87 255 
-159.185 -172.637 -1291 76 65 101 255 
-156.943 -172.637 -1291 77 70 115 255 
-154.701 -172.637 -1291 78 85 123 255 
-152.458 -172.637 -1291 87 83 131 255 
-150.216 -172.637 -1291 96 98 135 255 
-147.974 -172.637 -1291 97 93 139 255 
-146.297 -173.305 -1296 98 112 134 255 
-144.602 -173.974 -1301 94 92 130 255 
-142.342 -173.974 -1301 90 89 107 255 
-140.083 -173.974 -1301 83 69 84 255 
-138.353 -174.643 -1306 76 43 64 255 
-136.085 -174.643 -1306 75 54 45 255 
-133.817 -174.643 -1306 75 41 62 255 
-131.549 -174.643 -1306 74 52 80 255 
-129.281 -174.643 -1306 74 67 76 255 
-126.527 -173.974 -1301 79 69 72 255 
-123.79 -173.305 -1296 85 62 85 255 
-121.07 -172.637 -1291 82 71 99 255 
-118.828 -172.637 -1291 80 76 111 255 
-116.225 -172.102 -1287 77 72 123 255 
-113.547 -171.433 -1282 74 73 96 255 
-111.32 -171.433 -1282 69 41 69 255 
-108.668 -170.765 -1277 64 9 49 255 
-106.034 -170.096 -1272 47 18 29 255 
-103.825 -170.096 -1272 31 1 16 255 
-101.296 -169.561 -1268 34 23 4 255 
-99.0942 -169.561 -1268 37 3 30 255 
-96.8921 -169.561 -1268 38 37 56 255 
-94.3166 -168.893 -1263 40 50 65 255 
-91.8315 -168.358 -1259 45 54 74 255 
-89.645 -168.358 -1259 51 50 74 255 
-87.4585 -168.358 -1259 54 53 75 255 
-84.9334 -167.689 -1254 58 69 79 255 
-82.7556 -167.689 -1254 58 65 83 255 
-80.5779 -167.689 -1254 58 74 87 255 
-78.0875 -167.02 -1249 65 77 91 255 
-75.9184 -167.02 -1249 72 72 86 255 
-73.7493 -167.02 -1249 65 69 81 255 
-71.5802 -167.02 -1249 58 78 88 255 
-69.4111 -167.02 -1249 61 72 96 255 
-67.242 -167.02 -1249 65 93 84 255 
-65.0729 -167.02 -1249 69 70 72 255 
-62.9038 -167.02 -1249 74 58 77 255 
-60.5402 -166.486 -1245 66 65 83 255 
-58.378 -166.486 -1245 59 76 74 255 
-55.9901 -165.817 -1240 55 61 66 255 
-53.8367 -165.817 -1240 52 58 59 255 
-51.6832 -165.817 -1240 49 42 53 255 
-49.37 -165.282 -1236 47 30 45 255 
-47.2234 -165.282 -1236 42 25 38 255 
-45.0769 -165.282 -1236 38 26 32 255 
-42.9304 -165.282 -1236 35 20 27 255 
-40.7839 -165.282 -1236 33 14 20 255 
-38.6374 -165.282 -1236 31 16 13 255 
-36.4908 -165.282 -1236 29 17 11 255 
-34.3443 -165.282 -1236 30 13 9 255 
-32.1978 -165.282 -1236 32 12 6 255 
-30.0513 -165.282 -1236 24 11 4 255 
-27.9951 -165.817 -1240 16 10 6 255 
-25.8416 -165.817 -1240 18 7 8 255 
-23.6881 -165.817 -1240 20 11 9 255 
-21.6215 -166.486 -1245 32 5 11 255 
-19.4594 -166.486 -1245 45 1 24 255 
-17.3528 -167.02 -1249 48 37 38 255 
-15.1837 -167.02 -1249 51 67 73 255 
-13.0146 -167.02 -1249 70 73 109 255 
-10.8455 -167.02 -1249 89 95 109 255 
-8.6486 -166.486 -1245 82 72 109 255 
-6.48645 -166.486 -1245 76 77 79 255 
-4.3243 -166.486 -1245 71 56 50 255 
-2.14652 -165.282 -1236 67 40 53 255 
0 -164.747 -1232 56 36 56 255 
2.13957 -164.747 -1232 45 24 47 255 
4.26178 -164.079 -1227 25 22 39 255 
6.39267 -164.079 -1227 5 15 20 255 
8.52356 -164.079 -1227 46 60 1 255 
10.6197 -163.544 -1223 88 51 50 255 
12.7437 -163.544 -1223 102 104 100 255 
14.8676 -163.544 -1223 117 114 93 255 
17.0471 -164.079 -1227 90 107 86 255 
19.178 -164.079 -1227 63 96 97 255 
21.3089 -164.079 -1227 77 71 109 255 
23.4398 -164.079 -1227 91 67 102 255 
25.5707 -164.079 -1227 85 66 95 255 
27.7016 -164.079 -1227 80 58 87 255 
29.8325 -164.079 -1227 73 59 79 255 
32.0936 -164.747 -1232 66 56 72 255 
34.2332 -164.747 -1232 59 39 65 255 
36.3727 -164.747 -1232 52 27 50 255 
38.5123 -164.747 -1232 43 19 36 255 
40.6519 -164.747 -1232 34 14 32 255 
42.6178 -164.079 -1227 31 33 29 255 
44.7487 -164.079 -1227 29 19 51 255 
46.8796 -164.079 -1227 27 61 73 255 
49.0105 -164.079 -1227 26 80 74 255 
51.1414 -164.079 -1227 37 88 75 255 
53.2722 -164.079 -1227 48 95 89 255 
55.6289 -164.747 -1232 64 123 103 255 
57.7685 -164.747 -1232 81 145 106 255 
60.1026 -165.282 -1236 82 155 109 255 
62.2491 -165.282 -1236 83 157 99 255 
64.3956 -165.282 -1236 90 155 89 255 
66.5421 -165.282 -1236 97 151 87 255 
68.6886 -165.282 -1236 97 147 86 255 
70.8352 -165.282 -1236 97 142 43 255 
72.7455 -164.747 -1232 84 104 1 255 
116.225 -172.102 -1287 171 217 238 255 
118.46 -172.102 -1287 206 254 192 255 
120.226 -171.433 -1282 171 203 146 255 
122.452 -171.433 -1282 136 105 93 255 
124.679 -171.433 -1282 143 92 41 255 
-294.422 -196.282 -1449 106 85 137 255 
-291.906 -196.282 -1449 98 58 110 255 
-288.191 -195.469 -1443 91 76 116 255 
-284.497 -194.656 -1437 91 82 122 255 
-282.002 -194.656 -1437 92 82 118 255 
-278.339 -193.843 -1431 93 80 115 255 
-273.541 -192.218 -1419 95 79 122 255 
-269.93 -191.405 -1413 95 78 130 255 
-267.476 -191.405 -1413 96 81 125 255 
-262.959 -189.915 -1402 97 83 120 255 
-259.409 -189.102 -1396 98 85 115 255 
-256.985 -189.102 -1396 81 85 110 255 
-253.466 -188.289 -1390 64 77 109 255 
-251.053 -188.289 -1390 76 62 108 255 
-248.639 -188.289 -1390 88 78 110 255 
-245.339 -187.612 -1385 86 86 112 255 
-241.881 -186.799 -1379 85 86 118 255 
-239.486 -186.799 -1379 88 88 124 255 
-236.232 -186.122 -1374 92 86 122 255 
-233.846 -186.122 -1374 91 85 120 255 
-230.449 -185.309 -1368 91 86 121 255 
-228.073 -185.309 -1368 92 87 122 255 
-225.697 -185.309 -1368 93 84 117 255 
-222.505 -184.632 -1363 89 81 113 255 
-219.331 -183.955 -1358 86 81 109 255 
-216.972 -183.955 -1358 87 79 105 255 
-213.666 -183.142 -1352 89 79 110 255 
-211.318 -183.142 -1352 87 78 115 255 
-208.197 -182.465 -1347 86 78 116 255 
-205.858 -182.465 -1347 89 77 118 255 
-201.856 -180.975 -1336 93 80 112 255 
-199.536 -180.975 -1336 89 78 106 255 
-196.478 -180.297 -1331 86 77 94 255 
-193.437 -179.62 -1326 79 78 83 255 
-190.413 -178.943 -1321 72 59 78 255 
-188.119 -178.943 -1321 66 49 73 255 
-185.122 -178.265 -1316 60 44 70 255 
-182.142 -177.588 -1311 59 39 68 255 
-179.179 -176.911 -1306 59 39 59 255 
-176.911 -176.911 -1306 39 38 50 255 
-173.974 -176.233 -1301 19 38 56 255 
-171.055 -175.556 -1296 34 25 62 255 
-168.804 -175.556 -1296 49 34 58 255 
-165.911 -174.879 -1291 29 18 55 255 
-163.669 -174.879 -1291 9 25 67 255 
-161.427 -174.879 -1291 36 26 80 255 
-159.185 -174.879 -1291 63 41 81 255 
-156.943 -174.879 -1291 59 41 82 255 
-154.221 -174.337 -1287 56 53 93 255 
-152.458 -174.879 -1291 66 45 105 255 
-150.216 -174.879 -1291 77 61 115 255 
-147.974 -174.879 -1291 85 60 125 255 
-145.732 -174.879 -1291 93 83 124 255 
-143.49 -174.879 -1291 93 81 124 255 
-141.248 -174.879 -1291 94 94 120 255 
-139.545 -175.556 -1296 97 95 116 255 
-137.824 -176.233 -1301 101 85 99 255 
-136.085 -176.911 -1306 93 77 82 255 
-133.305 -176.233 -1301 86 66 86 255 
-131.045 -176.233 -1301 84 44 91 255 
-128.786 -176.233 -1301 82 65 89 255 
-126.527 -176.233 -1301 86 83 87 255 
-123.79 -175.556 -1296 90 74 93 255 
-121.07 -174.879 -1291 88 58 100 255 
-118.828 -174.879 -1291 87 75 102 255 
-116.225 -174.337 -1287 82 69 105 255 
-113.547 -173.66 -1282 78 80 90 255 
-111.32 -173.66 -1282 73 78 76 255 
-108.668 -172.982 -1277 69 69 66 255 
-106.034 -172.305 -1272 63 63 56 255 
-103.825 -172.305 -1272 58 60 50 255 
-101.296 -171.763 -1268 58 88 44 255 
-99.0942 -171.763 -1268 59 71 53 255 
-96.51 -171.086 -1263 69 96 63 255 
-94.3166 -171.086 -1263 80 87 73 255 
-91.8315 -170.544 -1259 88 117 83 255 
-89.289 -169.867 -1254 97 76 77 255 
-87.1112 -169.867 -1254 85 77 71 255 
-84.9334 -169.867 -1254 73 71 73 255 
-82.7556 -169.867 -1254 70 71 75 255 
-80.2566 -169.19 -1249 67 80 85 255 
-78.0875 -169.19 -1249 78 92 95 255 
-75.9184 -169.19 -1249 89 80 85 255 
-73.7493 -169.19 -1249 77 77 76 255 
-71.5802 -169.19 -1249 66 66 80 255 
-69.4111 -169.19 -1249 66 60 84 255 
-67.242 -169.19 -1249 66 61 77 255 
-65.0729 -169.19 -1249 63 47 70 255 
-62.7024 -168.648 -1245 60 49 73 255 
-60.5402 -168.648 -1245 55 49 77 255 
-58.1436 -167.97 -1240 51 51 67 255 
-55.9901 -167.97 -1240 48 47 57 255 
-53.663 -167.429 -1236 45 39 51 255 
-51.5165 -167.429 -1236 42 26 46 255 
-49.37 -167.429 -1236 40 22 39 255 
-47.2234 -167.429 -1236 34 20 32 255 
-45.0769 -167.429 -1236 28 17 26 255 
-42.9304 -167.429 -1236 27 13 21 255 
-40.7839 -167.429 -1236 27 13 17 255 
-38.5123 -166.887 -1232 26 11 14 255 
-36.4908 -167.429 -1236 26 12 12 255 
-34.3443 -167.429 -1236 28 10 11 255 
-32.1978 -167.429 -1236 30 10 11 255 
-30.0513 -167.429 -1236 17 10 12 255 
-27.9048 -167.429 -1236 5 6 9 255 
-25.8416 -167.97 -1240 12 4 6 255 
-23.6881 -167.97 -1240 19 7 29 255 
-21.6215 -168.648 -1245 38 8 53 255 
-19.4594 -168.648 -1245 58 42 64 255 
-17.2972 -168.648 -1245 79 80 75 255 
-15.135 -168.648 -1245 100 71 81 255 
-12.9729 -168.648 -1245 93 64 88 255 
-10.7673 -167.97 -1240 86 49 78 255 
-8.58608 -167.429 -1236 64 21 69 255 
-6.43956 -167.429 -1236 43 35 58 255 
-4.29304 -167.429 -1236 49 34 48 255 
-2.13089 -166.209 -1227 55 34 40 255 
0 -166.209 -1227 36 36 33 255 
2.12394 -165.668 -1223 18 15 26 255 
4.24789 -165.668 -1223 9 1 20 255 
6.39267 -166.209 -1227 1 104 73 255 
8.52356 -166.209 -1227 83 173 127 255 
10.6197 -165.668 -1223 166 182 152 255 
12.7437 -165.668 -1223 173 254 177 255 
14.8676 -165.668 -1223 180 187 137 255 
16.9915 -165.668 -1223 105 128 98 255 
19.1155 -165.668 -1223 30 75 96 255 
21.2394 -165.668 -1223 58 45 94 255 
23.3634 -165.668 -1223 87 62 94 255 
25.5707 -166.209 -1227 79 69 94 255 
27.7016 -166.209 -1227 72 62 80 255 
29.8325 -166.209 -1227 66 58 66 255 
31.9634 -166.209 -1227 60 46 63 255 
34.2332 -166.887 -1232 57 33 60 255 
36.2251 -166.209 -1227 55 32 50 255 
38.356 -166.209 -1227 50 35 41 255 
40.4869 -166.209 -1227 45 25 37 255 
42.6178 -166.209 -1227 43 23 34 255 
44.7487 -166.209 -1227 41 17 39 255 
46.8796 -166.209 -1227 25 12 44 255 
49.0105 -166.209 -1227 10 35 46 255 
51.1414 -166.209 -1227 16 39 48 255 
53.2722 -166.209 -1227 23 66 58 255 
55.4031 -166.209 -1227 41 88 68 255 
57.7685 -166.887 -1232 59 112 81 255 
59.9081 -166.887 -1232 68 134 95 255 
62.0476 -166.887 -1232 77 146 89 255 
64.1872 -166.887 -1232 89 162 84 255 
66.3268 -166.887 -1232 101 155 85 255 
68.4663 -166.887 -1232 98 146 86 255 
70.6059 -166.887 -1232 95 144 68 255 
72.7455 -166.887 -1232 90 146 50 255 
74.8851 -166.887 -1232 86 89 38 255 
129.771 -194.656 -1437 172 254 239 255 
118 -173.66 -1282 203 242 184 255 
119.757 -172.982 -1277 167 209 129 255 
121.975 -172.982 -1277 132 113 87 255 
141.655 -193.843 -1431 152 101 64 255 
-294.422 -198.798 -1449 131 85 146 255 
-291.906 -198.798 -1449 107 65 109 255 
-288.191 -197.975 -1443 84 84 115 255 
-284.497 -197.152 -1437 88 84 121 255 
-282.002 -197.152 -1437 93 86 115 255 
-278.339 -196.328 -1431 94 81 110 255 
-274.697 -195.505 -1425 95 77 116 255 
-271.076 -194.682 -1419 95 80 122 255 
-267.476 -193.859 -1413 96 82 121 255 
-263.897 -193.036 -1407 95 84 120 255 
-260.524 -192.35 -1402 94 86 116 255 
-255.88 -190.703 -1390 85 86 113 255 
-253.466 -190.703 -1390 77 88 113 255 
-251.053 -190.703 -1390 82 78 113 255 
-247.744 -190.017 -1385 87 78 111 255 
-244.276 -189.194 -1379 79 80 109 255 
-241.881 -189.194 -1379 72 85 114 255 
-239.486 -189.194 -1379 79 84 119 255 
-236.232 -188.508 -1374 87 86 120 255 
-233.846 -188.508 -1374 88 85 121 255 
-230.449 -187.685 -1368 90 86 124 255 
-228.073 -187.685 -1368 94 85 127 255 
-225.697 -187.685 -1368 98 86 120 255 
-222.505 -186.999 -1363 93 85 114 255 
-220.138 -186.999 -1363 88 83 108 255 
-216.972 -186.313 -1358 88 80 102 255 
-213.666 -185.49 -1352 89 76 106 255 
-211.318 -185.49 -1352 89 75 111 255 
-208.97 -185.49 -1352 89 73 111 255 
-205.858 -184.804 -1347 86 74 111 255 
-202.763 -184.118 -1342 83 77 109 255 
-199.536 -183.295 -1336 83 77 107 255 
-197.216 -183.295 -1336 84 78 100 255 
-193.437 -181.923 -1326 77 77 93 255 
-191.134 -181.923 -1326 70 75 88 255 
-188.119 -181.237 -1321 67 65 84 255 
-185.825 -181.237 -1321 64 64 83 255 
-182.836 -180.551 -1316 70 59 83 255 
-179.865 -179.865 -1311 76 50 78 255 
-177.588 -179.865 -1311 60 64 74 255 
-174.643 -179.179 -1306 44 73 72 255 
-171.055 -177.807 -1296 55 63 70 255 
-168.804 -177.807 -1296 66 77 54 255 
-166.553 -177.807 -1296 49 50 38 255 
-163.669 -177.121 -1291 32 29 56 255 
-161.427 -177.121 -1291 46 42 74 255 
-159.185 -177.121 -1291 61 34 62 255 
-156.943 -177.121 -1291 58 43 50 255 
-154.221 -176.572 -1287 55 41 65 255 
-151.986 -176.572 -1287 66 45 80 255 
-149.751 -176.572 -1287 78 44 96 255 
-147.516 -176.572 -1287 92 71 112 255 
-145.281 -176.572 -1287 106 82 115 255 
-143.046 -176.572 -1287 100 94 119 255 
-140.811 -176.572 -1287 95 111 133 255 
-138.576 -176.572 -1287 100 109 148 255 
-136.764 -177.121 -1291 105 127 133 255 
-135.043 -177.807 -1296 96 106 119 255 
-132.792 -177.807 -1296 88 104 110 255 
-130.542 -177.807 -1296 87 81 102 255 
-128.291 -177.807 -1296 87 67 102 255 
-125.554 -177.121 -1291 95 85 102 255 
-123.312 -177.121 -1291 104 96 101 255 
-120.695 -176.572 -1287 95 90 101 255 
-118.46 -176.572 -1287 87 101 94 255 
-115.322 -175.2 -1277 82 86 88 255 
-113.104 -175.2 -1277 78 102 85 255 
-110.452 -174.514 -1272 68 88 83 255 
-108.243 -174.514 -1272 59 127 83 255 
-106.034 -174.514 -1272 57 81 84 255 
-103.498 -173.965 -1268 56 92 84 255 
-100.897 -173.279 -1263 55 80 84 255 
-98.3908 -172.731 -1259 55 98 77 255 
-96.2044 -172.731 -1259 52 80 70 255 
-94.0179 -172.731 -1259 49 87 81 255 
-91.4668 -172.045 -1254 62 74 92 255 
-89.289 -172.045 -1254 75 63 79 255 
-87.1112 -172.045 -1254 66 56 67 255 
-84.5948 -171.359 -1249 58 69 67 255 
-82.4257 -171.359 -1249 53 61 67 255 
-80.2566 -171.359 -1249 49 85 83 255 
-78.0875 -171.359 -1249 60 73 100 255 
-75.6752 -170.81 -1245 71 80 86 255 
-73.5131 -170.81 -1245 64 62 72 255 
-71.351 -170.81 -1245 57 50 72 255 
-69.1888 -170.81 -1245 56 50 73 255 
-67.0266 -170.81 -1245 56 45 70 255 
-64.8645 -170.81 -1245 55 44 68 255 
-62.4505 -170.124 -1240 54 45 69 255 
-60.2971 -170.124 -1240 46 39 71 255 
-58.1436 -170.124 -1240 38 34 60 255 
-55.8095 -169.575 -1236 39 31 49 255 
-53.663 -169.575 -1236 40 26 44 255 
-51.5165 -169.575 -1236 36 19 39 255 
-49.2102 -169.026 -1232 33 12 33 255 
-47.0706 -169.026 -1232 25 13 27 255 
-44.931 -169.026 -1232 18 11 21 255 
-42.7915 -169.026 -1232 21 13 15 255 
-40.6519 -169.026 -1232 24 14 15 255 
-38.5123 -169.026 -1232 19 13 16 255 
-36.3727 -169.026 -1232 15 14 14 255 
-34.3443 -169.575 -1236 25 9 13 255 
-32.1978 -169.575 -1236 35 8 17 255 
-30.0513 -169.575 -1236 30 5 21 255 
-27.9951 -170.124 -1240 26 2 12 255 
-25.8416 -170.124 -1240 39 19 4 255 
-23.6881 -170.124 -1240 52 5 49 255 
-21.6215 -170.81 -1245 56 41 95 255 
-19.4594 -170.81 -1245 60 82 104 255 
-17.3528 -171.359 -1249 69 66 113 255 
-15.1837 -171.359 -1249 78 76 90 255 
-12.9729 -170.81 -1245 64 43 67 255 
-10.7673 -170.124 -1240 51 19 48 255 
-8.58608 -169.575 -1236 44 17 30 255 
-6.41872 -169.026 -1232 37 11 38 255 
-4.27915 -169.026 -1232 42 24 47 255 
-2.13089 -168.34 -1227 47 26 28 255 
0 -168.34 -1227 28 15 10 255 
2.12394 -167.792 -1223 9 1 5 255 
4.24789 -167.792 -1223 53 119 1 255 
6.39267 -168.34 -1227 98 230 127 255 
8.49577 -167.792 -1223 149 227 254 255 
10.6197 -167.792 -1223 201 254 254 255 
12.7437 -167.792 -1223 204 254 254 255 
14.8676 -167.792 -1223 207 254 182 255 
16.9915 -167.792 -1223 147 167 111 255 
19.053 -167.243 -1219 87 34 95 255 
21.2394 -167.792 -1223 79 41 79 255 
23.287 -167.243 -1219 72 68 86 255 
25.4873 -167.792 -1223 70 60 94 255 
27.7016 -168.34 -1227 68 65 74 255 
29.8325 -168.34 -1227 59 52 54 255 
31.9634 -168.34 -1227 50 38 54 255 
34.0942 -168.34 -1227 51 35 55 255 
36.2251 -168.34 -1227 53 35 51 255 
38.356 -168.34 -1227 42 31 47 255 
40.4869 -168.34 -1227 32 28 43 255 
42.6178 -168.34 -1227 37 22 39 255 
44.7487 -168.34 -1227 42 18 27 255 
46.8796 -168.34 -1227 32 16 16 255 
49.0105 -168.34 -1227 22 13 18 255 
51.1414 -168.34 -1227 18 27 21 255 
53.2722 -168.34 -1227 14 44 27 255 
55.4031 -168.34 -1227 23 56 33 255 
57.7685 -169.026 -1232 32 84 57 255 
59.9081 -169.026 -1232 43 107 82 255 
62.0476 -169.026 -1232 54 131 81 255 
64.1872 -169.026 -1232 64 147 80 255 
66.3268 -169.026 -1232 75 164 83 255 
68.4663 -169.026 -1232 81 149 86 255 
70.6059 -169.026 -1232 88 143 92 255 
72.7455 -169.026 -1232 85 143 99 255 
74.8851 -169.026 -1232 83 129 58 255 
77.0246 -169.026 -1232 87 74 17 255 
117.079 -174.514 -1272 174 254 177 255 
119.288 -174.514 -1272 153 165 113 255 
141.655 -196.328 -1431 147 109 65 255 
-291.906 -201.314 -1449 117 37 97 255 
-288.191 -200.481 -1443 78 67 108 255 
-284.497 -199.647 -1437 86 85 119 255 
-282.002 -199.647 -1437 95 84 119 255 
-278.339 -198.814 -1431 95 84 119 255 
-274.697 -197.98 -1425 96 83 120 255 
-271.076 -197.146 -1419 96 84 121 255 
-267.476 -196.313 -1413 96 85 120 255 
-263.897 -195.479 -1407 93 86 119 255 
-260.524 -194.785 -1402 91 86 117 255 
-256.985 -193.951 -1396 90 88 116 255 
-253.466 -193.117 -1390 90 86 118 255 
-251.053 -193.117 -1390 88 85 121 255 
-247.744 -192.423 -1385 87 80 114 255 
-244.276 -191.589 -1379 73 73 108 255 
-241.881 -191.589 -1379 60 79 109 255 
-239.486 -191.589 -1379 71 81 111 255 
-236.232 -190.894 -1374 83 83 113 255 
-233.846 -190.894 -1374 86 85 115 255 
-230.449 -190.061 -1368 89 83 117 255 
-228.073 -190.061 -1368 96 83 120 255 
-225.697 -190.061 -1368 104 86 117 255 
-222.505 -189.366 -1363 97 92 114 255 
-220.138 -189.366 -1363 90 87 110 255 
-216.972 -188.671 -1358 90 86 106 255 
-213.666 -187.838 -1352 90 80 111 255 
-211.318 -187.838 -1352 91 75 116 255 
-208.97 -187.838 -1352 92 73 113 255 
-205.858 -187.143 -1347 82 71 110 255 
-202.763 -186.449 -1342 73 75 110 255 
-200.432 -186.449 -1342 78 77 111 255 
-197.216 -185.615 -1336 83 80 103 255 
-194.166 -184.92 -1331 76 81 95 255 
-191.134 -184.226 -1326 69 77 91 255 
-188.831 -184.226 -1326 69 74 87 255 
-186.528 -184.226 -1326 69 80 88 255 
-183.531 -183.531 -1321 81 86 90 255 
-179.865 -182.142 -1311 94 81 81 255 
-177.588 -182.142 -1311 81 98 73 255 
-174.643 -181.447 -1306 69 77 81 255 
-171.715 -180.752 -1301 76 78 89 255 
-169.455 -180.752 -1301 84 76 75 255 
-166.553 -180.058 -1296 70 78 62 255 
-164.303 -180.058 -1296 56 66 70 255 
-161.427 -179.363 -1291 57 83 79 255 
-159.185 -179.363 -1291 59 66 73 255 
-156.943 -179.363 -1291 57 58 67 255 
-154.221 -178.807 -1287 55 62 79 255 
-151.986 -178.807 -1287 67 54 91 255 
-149.751 -178.807 -1287 79 75 101 255 
-146.943 -178.113 -1282 99 99 111 255 
-144.716 -178.113 -1282 119 95 111 255 
-141.934 -177.418 -1277 107 103 112 255 
-140.264 -178.113 -1282 96 97 124 255 
-137.499 -177.418 -1277 102 105 136 255 
-135.281 -177.418 -1277 109 116 124 255 
-133.063 -177.418 -1277 99 119 112 255 
-131.87 -178.807 -1287 90 110 109 255 
-129.635 -178.807 -1287 91 113 107 255 
-127.4 -178.807 -1287 93 99 111 255 
-125.165 -178.807 -1287 106 98 116 255 
-122.93 -178.807 -1287 119 104 113 255 
-120.226 -178.113 -1282 103 108 111 255 
-118.46 -178.807 -1287 88 88 92 255 
-114.87 -176.723 -1272 83 75 73 255 
-112.661 -176.723 -1272 79 59 62 255 
-110.105 -176.167 -1268 64 47 52 255 
-107.903 -176.167 -1268 49 59 60 255 
-105.7 -176.167 -1268 52 44 69 255 
-103.09 -175.473 -1263 55 54 66 255 
-100.577 -174.917 -1259 53 42 64 255 
-98.3908 -174.917 -1259 51 56 64 255 
-95.8223 -174.222 -1254 35 40 65 255 
-93.6445 -174.222 -1254 19 48 64 255 
-91.4668 -174.222 -1254 36 32 63 255 
-89.289 -174.222 -1254 53 36 63 255 
-86.7639 -173.528 -1249 48 15 63 255 
-84.5948 -173.528 -1249 44 29 51 255 
-82.4257 -173.528 -1249 38 22 40 255 
-79.9995 -172.972 -1245 32 46 63 255 
-77.8374 -172.972 -1245 42 39 86 255 
-75.6752 -172.972 -1245 53 50 77 255 
-73.5131 -172.972 -1245 50 44 68 255 
-71.351 -172.972 -1245 48 46 67 255 
-69.1888 -172.972 -1245 47 46 66 255 
-67.0266 -172.972 -1245 47 40 57 255 
-64.8645 -172.972 -1245 47 40 49 255 
-62.4505 -172.277 -1240 48 42 56 255 
-60.2971 -172.277 -1240 37 30 63 255 
-57.956 -171.722 -1236 26 26 48 255 
-55.8095 -171.722 -1236 31 17 33 255 
-53.663 -171.722 -1236 36 18 35 255 
-51.3498 -171.166 -1232 31 14 38 255 
-49.2102 -171.166 -1232 27 13 31 255 
-47.0706 -171.166 -1232 18 11 25 255 
-44.931 -171.166 -1232 9 16 17 255 
-42.7915 -171.166 -1232 15 17 10 255 
-40.6519 -171.166 -1232 21 17 11 255 
-38.5123 -171.166 -1232 12 14 12 255 
-36.3727 -171.166 -1232 4 11 15 255 
-34.3443 -171.722 -1236 22 4 18 255 
-32.1978 -171.722 -1236 41 3 29 255 
-30.0513 -171.722 -1236 44 1 41 255 
-27.9951 -172.277 -1240 48 33 45 255 
-25.8416 -172.277 -1240 67 68 50 255 
-23.6881 -172.277 -1240 86 55 64 255 
-21.6215 -172.972 -1245 74 73 78 255 
-19.4594 -172.972 -1245 62 49 75 255 
-17.3528 -173.528 -1249 59 26 72 255 
-15.135 -172.972 -1245 57 32 61 255 
-12.9208 -172.277 -1240 37 15 50 255 
-10.7326 -171.722 -1236 17 18 39 255 
-8.55829 -171.166 -1232 24 17 28 255 
-6.39267 -170.471 -1227 31 19 33 255 
-4.26178 -170.471 -1227 35 27 39 255 
-2.12394 -169.915 -1223 40 16 22 255 
0 -169.915 -1223 20 1 6 255 
2.12394 -169.915 -1223 1 62 66 255 
4.24789 -169.915 -1223 98 246 127 255 
6.37183 -169.915 -1223 195 246 190 255 
8.49577 -169.915 -1223 216 254 254 255 
10.6197 -169.915 -1223 237 254 254 255 
12.7437 -169.915 -1223 235 254 254 255 
14.819 -169.36 -1219 234 254 208 255 
16.9915 -169.915 -1223 189 254 163 255 
19.053 -169.36 -1219 145 128 122 255 
21.17 -169.36 -1219 101 20 82 255 
23.287 -169.36 -1219 57 39 76 255 
25.4873 -169.915 -1223 60 39 71 255 
27.6113 -169.915 -1223 64 48 60 255 
29.7352 -169.915 -1223 52 49 50 255 
31.9634 -170.471 -1227 40 40 49 255 
34.0942 -170.471 -1227 45 36 49 255 
36.2251 -170.471 -1227 51 33 45 255 
38.356 -170.471 -1227 35 30 42 255 
40.4869 -170.471 -1227 20 26 37 255 
42.6178 -170.471 -1227 32 19 33 255 
44.6028 -169.915 -1223 44 22 27 255 
46.7268 -169.915 -1223 39 23 21 255 
49.0105 -170.471 -1227 34 19 21 255 
51.1414 -170.471 -1227 19 16 22 255 
53.2722 -170.471 -1227 5 22 26 255 
55.4031 -170.471 -1227 5 9 30 255 
57.7685 -171.166 -1232 6 47 36 255 
59.9081 -171.166 -1232 19 82 43 255 
62.0476 -171.166 -1232 32 103 69 255 
64.1872 -171.166 -1232 41 134 95 255 
66.3268 -171.166 -1232 50 139 94 255 
68.4663 -171.166 -1232 65 144 93 255 
70.6059 -171.166 -1232 81 146 96 255 
72.9817 -171.722 -1236 81 157 99 255 
74.8851 -171.166 -1232 81 140 75 255 
77.0246 -171.166 -1232 89 107 51 255 
94.0405 -197.98 -1425 98 35 55 255 
119.288 -176.723 -1272 139 143 67 255 
-288.191 -202.987 -1443 95 65 101 255 
-284.497 -202.143 -1437 85 65 118 255 
-282.002 -202.143 -1437 75 84 123 255 
-279.506 -202.143 -1437 83 82 128 255 
-275.854 -201.299 -1431 92 88 124 255 
-271.076 -199.611 -1419 96 87 121 255 
-267.476 -198.767 -1413 101 88 119 255 
-265.022 -198.767 -1413 97 86 118 255 
-261.453 -197.923 -1407 93 86 118 255 
-256.985 -196.375 -1396 95 87 119 255 
-253.466 -195.531 -1390 98 87 124 255 
-251.053 -195.531 -1390 94 85 129 255 
-247.744 -194.828 -1385 91 85 118 255 
-244.276 -193.984 -1379 82 80 108 255 
-241.881 -193.984 -1379 73 77 105 255 
-239.486 -193.984 -1379 78 78 103 255 
-236.232 -193.281 -1374 84 80 106 255 
-233.846 -193.281 -1374 85 80 110 255 
-230.449 -192.437 -1368 87 80 112 255 
-228.073 -192.437 -1368 91 81 114 255 
-225.697 -192.437 -1368 96 85 114 255 
-222.505 -191.733 -1363 92 86 115 255 
-219.331 -191.03 -1358 88 90 113 255 
-216.972 -191.03 -1358 89 85 111 255 
-213.666 -190.186 -1352 90 86 116 255 
-211.318 -190.186 -1352 95 78 121 255 
-208.97 -190.186 -1352 101 75 115 255 
-205.858 -189.482 -1347 90 73 110 255 
-202.763 -188.779 -1342 79 76 113 255 
-200.432 -188.779 -1342 84 78 116 255 
-197.216 -187.935 -1336 90 84 106 255 
-194.166 -187.232 -1331 79 83 97 255 
-191.855 -187.232 -1331 68 79 93 255 
-188.831 -186.528 -1326 66 83 90 255 
-186.528 -186.528 -1326 64 96 94 255 
-183.531 -185.825 -1321 57 75 98 255 
-181.237 -185.825 -1321 51 91 85 255 
-177.588 -184.418 -1311 53 66 73 255 
-174.643 -183.715 -1306 55 59 91 255 
-172.375 -183.715 -1306 56 55 109 255 
-169.455 -183.012 -1301 57 73 97 255 
-167.196 -183.012 -1301 57 63 86 255 
-164.303 -182.308 -1296 57 76 85 255 
-162.052 -182.308 -1296 60 76 84 255 
-159.185 -181.605 -1291 63 90 84 255 
-156.943 -181.605 -1291 69 75 85 255 
-154.221 -181.042 -1287 75 95 94 255 
-151.986 -181.042 -1287 75 79 103 255 
-149.169 -180.339 -1282 76 105 107 255 
-146.943 -180.339 -1282 81 88 111 255 
-144.152 -179.636 -1277 86 98 108 255 
-141.934 -179.636 -1277 86 90 106 255 
-139.717 -179.636 -1277 86 69 115 255 
-136.96 -178.932 -1272 91 89 124 255 
-134.751 -178.932 -1272 96 116 115 255 
-132.542 -178.932 -1272 90 103 106 255 
-130.846 -179.636 -1277 85 106 109 255 
-128.628 -179.636 -1277 88 105 112 255 
-126.41 -179.636 -1277 91 120 121 255 
-124.193 -179.636 -1277 103 107 131 255 
-122.452 -180.339 -1282 115 116 126 255 
-119.757 -179.636 -1277 95 91 121 255 
-117.079 -178.932 -1272 76 69 90 255 
-114.509 -178.37 -1268 76 46 59 255 
-112.307 -178.37 -1268 77 15 40 255 
-109.671 -177.666 -1263 68 31 21 255 
-107.477 -177.666 -1263 60 20 38 255 
-105.284 -177.666 -1263 59 38 55 255 
-102.764 -177.104 -1259 59 39 49 255 
-100.178 -176.4 -1254 57 43 44 255 
-98.0001 -176.4 -1254 55 44 52 255 
-95.8223 -176.4 -1254 50 39 60 255 
-93.6445 -176.4 -1254 46 33 47 255 
-91.4668 -176.4 -1254 53 35 34 255 
-88.933 -175.697 -1249 60 35 46 255 
-86.7639 -175.697 -1249 50 28 59 255 
-84.3238 -175.134 -1245 41 13 36 255 
-82.1617 -175.134 -1245 39 31 14 255 
-79.9995 -175.134 -1245 38 40 43 255 
-77.8374 -175.134 -1245 47 42 73 255 
-75.6752 -175.134 -1245 56 41 68 255 
-73.5131 -175.134 -1245 48 43 64 255 
-71.351 -175.134 -1245 41 44 61 255 
-69.1888 -175.134 -1245 40 35 59 255 
-67.0266 -175.134 -1245 39 30 44 255 
-64.604 -174.431 -1240 44 47 30 255 
-62.2491 -173.868 -1236 49 54 42 255 
-60.1026 -173.868 -1236 43 48 55 255 
-57.956 -173.868 -1236 38 26 36 255 
-55.6289 -173.305 -1232 40 32 18 255 
-53.4893 -173.305 -1232 43 19 28 255 
-51.3498 -173.305 -1232 39 27 38 255 
-49.2102 -173.305 -1232 35 19 30 255 
-47.0706 -173.305 -1232 30 19 23 255 
-44.931 -173.305 -1232 25 27 14 255 
-42.7915 -173.305 -1232 28 21 5 255 
-40.6519 -173.305 -1232 31 24 7 255 
-38.5123 -173.305 -1232 27 19 9 255 
-36.3727 -173.305 -1232 23 14 16 255 
-34.3443 -173.868 -1236 43 24 23 255 
-32.1978 -173.868 -1236 63 2 42 255 
-30.0513 -173.868 -1236 58 34 62 255 
-27.9951 -174.431 -1240 53 64 79 255 
-25.8416 -174.431 -1240 62 62 97 255 
-23.6881 -174.431 -1240 72 76 79 255 
-21.6215 -175.134 -1245 62 45 62 255 
-19.4594 -175.134 -1245 52 16 46 255 
-17.2972 -175.134 -1245 49 18 31 255 
-15.135 -175.134 -1245 47 14 32 255 
-12.8791 -173.868 -1236 33 17 34 255 
-10.6979 -173.305 -1232 19 21 30 255 
-8.55829 -173.305 -1232 22 20 26 255 
-6.41872 -173.305 -1232 25 23 29 255 
-4.26178 -172.602 -1227 26 18 32 255 
-2.13089 -172.602 -1227 28 13 17 255 
0 -172.039 -1223 14 4 2 255 
2.12394 -172.039 -1223 1 1 128 255 
4.24789 -172.039 -1223 49 132 254 255 
6.37183 -172.039 -1223 98 254 254 255 
8.49577 -172.039 -1223 157 254 254 255 
10.6197 -172.039 -1223 216 254 254 255 
12.702 -171.477 -1219 197 254 254 255 
14.819 -171.477 -1219 178 254 234 255 
16.936 -171.477 -1219 161 234 215 255 
19.053 -171.477 -1219 144 204 150 255 
21.17 -171.477 -1219 105 107 86 255 
23.1914 -170.773 -1214 67 30 67 255 
25.404 -171.477 -1219 61 29 48 255 
27.6113 -172.039 -1223 55 42 47 255 
29.7352 -172.039 -1223 50 42 47 255 
31.9634 -172.602 -1227 46 39 45 255 
34.0942 -172.602 -1227 48 35 43 255 
36.2251 -172.602 -1227 51 34 40 255 
38.356 -172.602 -1227 45 30 38 255 
40.4869 -172.602 -1227 40 30 33 255 
42.4789 -172.039 -1223 42 28 28 255 
44.6028 -172.039 -1223 45 31 27 255 
46.7268 -172.039 -1223 42 27 26 255 
49.0105 -172.602 -1227 39 26 24 255 
51.1414 -172.602 -1227 30 22 23 255 
53.2722 -172.602 -1227 21 21 25 255 
55.4031 -172.602 -1227 18 16 28 255 
57.7685 -173.305 -1232 15 14 16 255 
59.9081 -173.305 -1232 24 43 4 255 
62.0476 -173.305 -1232 33 65 57 255 
64.1872 -173.305 -1232 35 92 110 255 
66.3268 -173.305 -1232 37 115 105 255 
68.4663 -173.305 -1232 54 130 100 255 
70.6059 -173.305 -1232 72 141 100 255 
72.9817 -173.868 -1236 75 150 100 255 
74.8851 -173.305 -1232 79 169 93 255 
77.0246 -173.305 -1232 92 128 86 255 
94.0405 -200.455 -1425 101 70 62 255 
-288.191 -205.493 -1443 112 89 118 255 
-284.497 -204.638 -1437 84 29 97 255 
-282.002 -204.638 -1437 56 54 106 255 
-278.339 -203.784 -1431 72 72 116 255 
-274.697 -202.929 -1425 88 81 116 255 
-271.076 -202.075 -1419 97 88 116 255 
-267.476 -201.221 -1413 106 85 117 255 
-265.022 -201.221 -1413 101 87 119 255 
-261.453 -200.366 -1407 96 87 119 255 
-256.985 -198.8 -1396 101 88 120 255 
-254.561 -198.8 -1396 106 85 123 255 
-251.053 -197.945 -1390 101 86 126 255 
-247.744 -197.233 -1385 96 84 117 255 
-244.276 -196.379 -1379 91 85 109 255 
-241.004 -195.667 -1374 87 79 103 255 
-238.618 -195.667 -1374 86 76 98 255 
-236.232 -195.667 -1374 85 75 101 255 
-233.846 -195.667 -1374 85 78 104 255 
-230.449 -194.812 -1368 86 77 105 255 
-228.073 -194.812 -1368 87 78 107 255 
-225.697 -194.812 -1368 88 78 107 255 
-222.505 -194.1 -1363 87 81 108 255 
-220.138 -194.1 -1363 87 81 108 255 
-216.972 -193.388 -1358 88 80 108 255 
-213.666 -192.534 -1352 90 77 109 255 
-211.318 -192.534 -1352 100 78 110 255 
-208.97 -192.534 -1352 111 71 107 255 
-205.858 -191.822 -1347 98 71 105 255 
-203.518 -191.822 -1347 86 74 105 255 
-200.432 -191.11 -1342 92 77 105 255 
-198.102 -191.11 -1342 98 82 98 255 
-194.896 -190.255 -1336 82 89 91 255 
-191.855 -189.543 -1331 67 80 89 255 
-188.831 -188.831 -1326 63 87 87 255 
-186.528 -188.831 -1326 59 60 85 255 
-184.226 -188.831 -1326 34 30 84 255 
-181.923 -188.831 -1326 9 41 74 255 
-178.265 -187.407 -1316 25 17 64 255 
-175.311 -186.695 -1311 42 25 59 255 
