ply
format ascii 1.0
comment VCGLIB generated
element vertex 1261
property float x
property float y
property float z
property uchar red
property uchar green
property uchar blue
property uchar alpha
element face 0
property list uchar int vertex_indices
end_header
-38.9187 -209.729 -1245 41 17 18 255 
-36.7565 -209.729 -1245 38 14 20 255 
-34.7055 -210.402 -1249 39 16 22 255 
-32.5364 -210.402 -1249 41 19 21 255 
-30.3674 -210.402 -1249 36 15 21 255 
-28.3111 -211.245 -1254 31 14 20 255 
-26.1334 -211.245 -1254 26 16 20 255 
-24.0511 -212.087 -1259 21 17 20 255 
-22.4204 -217.478 -1291 26 17 20 255 
-20.1783 -217.478 -1291 32 17 23 255 
-17.9363 -217.478 -1291 35 18 26 255 
-15.755 -218.32 -1296 39 20 21 255 
-13.5043 -218.32 -1296 31 19 17 255 
-11.297 -219.162 -1301 23 21 13 255 
-9.07235 -220.004 -1306 24 23 10 255 
-6.80426 -220.004 -1306 25 21 9 255 
-4.51881 -219.162 -1301 24 16 8 255 
-2.2594 -219.162 -1301 23 12 7 255 
0 -219.162 -1301 21 13 7 255 
2.26809 -220.004 -1306 19 14 8 255 
4.53617 -220.004 -1306 19 20 10 255 
6.80426 -220.004 -1306 20 30 14 255 
9.10708 -220.847 -1311 30 33 18 255 
11.4273 -221.689 -1316 40 39 16 255 
13.7648 -222.531 -1321 43 35 14 255 
16.059 -222.531 -1321 46 34 7 255 
18.4226 -223.374 -1326 46 39 1 255 
20.7254 -223.374 -1326 47 51 48 255 
23.0282 -223.374 -1326 78 127 96 255 
25.2355 -222.531 -1321 109 188 87 255 
27.5296 -222.531 -1321 99 173 78 255 
29.598 -220.847 -1311 90 166 81 255 
-286.626 -226.527 -1331 217 202 212 255 
-283.247 -225.676 -1326 224 191 187 255 
-280.944 -225.676 -1326 200 173 162 255 
-277.591 -224.825 -1321 176 130 141 255 
-275.296 -224.825 -1321 113 104 120 255 
-271.969 -223.974 -1316 50 80 105 255 
-268.659 -223.123 -1311 65 49 90 255 
-266.382 -223.123 -1311 80 57 97 255 
-263.098 -222.272 -1306 83 71 105 255 
-259.831 -221.422 -1301 86 71 104 255 
-257.572 -221.422 -1301 92 72 104 255 
-254.331 -220.571 -1296 99 72 105 255 
-251.108 -219.72 -1291 94 75 106 255 
-248.866 -219.72 -1291 90 74 106 255 
-245.86 -219.039 -1287 88 77 106 255 
-243.625 -219.039 -1287 86 77 105 255 
-240.452 -218.188 -1282 84 77 104 255 
-237.296 -217.337 -1277 82 79 101 255 
-235.079 -217.337 -1277 85 80 98 255 
-232.861 -217.337 -1277 88 79 105 255 
-229.74 -216.486 -1272 90 81 112 255 
-227.531 -216.486 -1272 92 78 108 255 
-225.322 -216.486 -1272 90 77 105 255 
-222.411 -215.805 -1268 89 78 104 255 
-220.209 -215.805 -1268 90 81 104 255 
-218.007 -215.805 -1268 91 79 104 255 
-215.805 -215.805 -1268 89 80 105 255 
-213.603 -215.805 -1268 87 78 104 255 
-210.567 -214.954 -1263 87 76 104 255 
-208.374 -214.954 -1263 88 74 103 255 
-205.528 -214.273 -1259 86 73 102 255 
-203.341 -214.273 -1259 85 75 101 255 
-201.155 -214.273 -1259 90 78 100 255 
-198.178 -213.422 -1254 95 80 104 255 
-196 -213.422 -1254 90 82 109 255 
-193.05 -212.571 -1249 86 82 105 255 
-190.881 -212.571 -1249 85 82 101 255 
-188.711 -212.571 -1249 85 80 103 255 
-185.945 -211.891 -1245 89 81 106 255 
-183.783 -211.891 -1245 94 79 106 255 
-181.621 -211.891 -1245 88 82 107 255 
-179.458 -211.891 -1245 83 82 107 255 
-176.584 -211.04 -1240 84 81 108 255 
-173.868 -210.359 -1236 86 80 112 255 
-171.722 -210.359 -1236 85 82 117 255 
-169.026 -209.678 -1232 84 81 110 255 
-166.887 -209.678 -1232 82 81 103 255 
-164.747 -209.678 -1232 81 78 100 255 
-161.948 -208.827 -1227 82 78 97 255 
-159.296 -208.146 -1223 83 74 98 255 
-157.172 -208.146 -1223 81 76 99 255 
-154.541 -207.466 -1219 80 74 101 255 
-152.424 -207.466 -1219 80 80 103 255 
-150.307 -207.466 -1219 80 78 104 255 
-148.19 -207.466 -1219 81 78 105 255 
-145.474 -206.615 -1214 83 77 104 255 
-143.365 -206.615 -1214 83 80 103 255 
-141.257 -206.615 -1214 83 79 104 255 
-139.149 -206.615 -1214 81 81 105 255 
-137.04 -206.615 -1214 80 80 107 255 
-134.932 -206.615 -1214 81 81 109 255 
-132.824 -206.615 -1214 83 79 109 255 
-130.285 -205.934 -1210 84 79 110 255 
-128.183 -205.934 -1210 85 78 110 255 
-125.665 -205.253 -1206 82 81 110 255 
-123.571 -205.253 -1206 80 80 107 255 
-121.476 -205.253 -1206 82 77 105 255 
-118.986 -204.572 -1202 84 61 67 255 
-116.899 -204.572 -1202 59 21 30 255 
-114.811 -204.572 -1202 34 28 40 255 
-112.724 -204.572 -1202 34 56 51 255 
-110.636 -204.572 -1202 34 46 47 255 
-108.549 -204.572 -1202 36 36 43 255 
-106.461 -204.572 -1202 39 25 38 255 
-104.374 -204.572 -1202 26 18 33 255 
-102.286 -204.572 -1202 13 16 30 255 
-100.199 -204.572 -1202 25 17 27 255 
-98.1112 -204.572 -1202 37 21 22 255 
-96.0238 -204.572 -1202 44 25 17 255 
-93.9363 -204.572 -1202 51 25 15 255 
-91.8488 -204.572 -1202 46 26 13 255 
-89.7614 -204.572 -1202 41 22 14 255 
-87.9656 -205.253 -1206 43 18 16 255 
-85.8712 -205.253 -1206 45 17 21 255 
-83.7768 -205.253 -1206 48 21 27 255 
-81.9533 -205.934 -1210 51 20 19 255 
-79.8519 -205.934 -1210 39 20 11 255 
-77.7506 -205.934 -1210 28 26 8 255 
-75.6492 -205.934 -1210 37 28 5 255 
-73.791 -206.615 -1214 46 31 7 255 
-71.6827 -206.615 -1214 40 30 9 255 
-69.5743 -206.615 -1214 34 29 10 255 
-67.466 -206.615 -1214 34 30 11 255 
-65.6269 -207.466 -1219 34 30 14 255 
-63.5099 -207.466 -1219 36 30 17 255 
-61.3929 -207.466 -1219 39 26 17 255 
-59.2759 -207.466 -1219 47 19 17 255 
-57.1589 -207.466 -1219 55 18 14 255 
-55.0419 -207.466 -1219 48 18 12 255 
-53.0986 -208.146 -1223 41 21 17 255 
-51.1414 -208.827 -1227 37 22 22 255 
-49.0105 -208.827 -1227 34 20 18 255 
-47.0706 -209.678 -1232 35 16 15 255 
-45.0769 -210.359 -1236 37 16 12 255 
-42.9304 -210.359 -1236 36 20 10 255 
-40.9159 -211.04 -1240 35 20 13 255 
-38.9187 -211.891 -1245 35 22 16 255 
-36.7565 -211.891 -1245 35 19 17 255 
-34.7055 -212.571 -1249 38 18 19 255 
-32.6667 -213.422 -1254 41 17 18 255 
-30.4889 -213.422 -1254 37 17 18 255 
-28.424 -214.273 -1259 33 17 16 255 
-26.2376 -214.273 -1259 29 17 15 255 
-24.6624 -219.72 -1291 25 18 17 255 
-22.4204 -219.72 -1291 30 17 19 255 
-20.1783 -219.72 -1291 35 18 24 255 
-17.9363 -219.72 -1291 32 21 30 255 
-15.755 -220.571 -1296 30 21 22 255 
-13.5043 -220.571 -1296 25 25 14 255 
-11.297 -221.422 -1301 20 23 10 255 
-9.07235 -222.272 -1306 20 25 6 255 
-6.80426 -222.272 -1306 20 19 5 255 
-4.51881 -221.422 -1301 18 15 5 255 
-2.26809 -222.272 -1306 17 12 5 255 
0 -222.272 -1306 20 12 5 255 
2.26809 -222.272 -1306 24 18 8 255 
4.55354 -223.123 -1311 31 22 12 255 
6.83031 -223.123 -1311 39 31 15 255 
9.17655 -224.825 -1321 46 35 19 255 
11.4707 -224.825 -1321 54 38 19 255 
13.8169 -225.676 -1326 58 39 20 255 
16.1197 -225.676 -1326 62 44 21 255 
18.4226 -225.676 -1326 76 42 23 255 
20.7254 -225.676 -1326 90 100 62 255 
23.0282 -225.676 -1326 100 165 102 255 
25.2355 -224.825 -1321 110 170 91 255 
27.3212 -223.123 -1311 100 167 80 255 
29.4851 -222.272 -1306 90 165 80 255 
31.7532 -222.272 -1306 90 157 80 255 
34.0213 -222.272 -1306 91 144 62 255 
-279.885 -227.12 -1321 206 192 221 255 
-277.591 -227.12 -1321 196 192 185 255 
-275.296 -227.12 -1321 161 143 149 255 
-271.969 -226.26 -1316 126 97 110 255 
-268.659 -225.4 -1311 114 73 72 255 
-266.382 -225.4 -1311 102 29 87 255 
-263.098 -224.541 -1306 84 43 103 255 
-259.831 -223.681 -1301 66 69 102 255 
-257.572 -223.681 -1301 78 69 102 255 
-254.331 -222.821 -1296 91 74 105 255 
-252.081 -222.821 -1296 88 72 108 255 
-248.866 -221.962 -1291 85 71 113 255 
-245.86 -221.274 -1287 83 74 119 255 
-243.625 -221.274 -1287 81 78 112 255 
-241.39 -221.274 -1287 81 78 105 255 
-239.155 -221.274 -1287 82 79 105 255 
-235.079 -219.555 -1277 83 78 105 255 
-232.861 -219.555 -1277 84 78 111 255 
-229.74 -218.695 -1272 86 79 117 255 
-227.531 -218.695 -1272 89 80 111 255 
-225.322 -218.695 -1272 87 78 105 255 
-223.113 -218.695 -1272 85 78 105 255 
-220.209 -218.007 -1268 90 79 105 255 
-218.007 -218.007 -1268 95 79 109 255 
-215.805 -218.007 -1268 90 79 114 255 
-213.603 -218.007 -1268 86 80 109 255 
-210.567 -217.148 -1263 85 77 105 255 
-208.374 -217.148 -1263 85 74 102 255 
-206.181 -217.148 -1263 83 74 99 255 
-203.341 -216.46 -1259 82 75 98 255 
-200.356 -215.6 -1254 85 76 97 255 
-198.178 -215.6 -1254 89 79 105 255 
-196 -215.6 -1254 86 81 113 255 
-193.05 -214.741 -1249 84 84 107 255 
-190.881 -214.741 -1249 84 81 102 255 
-188.711 -214.741 -1249 85 79 104 255 
-185.945 -214.053 -1245 87 79 106 255 
-183.783 -214.053 -1245 90 79 106 255 
-181.621 -214.053 -1245 86 80 106 255 
-179.458 -214.053 -1245 82 83 105 255 
-176.584 -213.193 -1240 82 77 105 255 
-173.868 -212.505 -1236 82 77 109 255 
-171.722 -212.505 -1236 80 71 113 255 
-169.026 -211.818 -1232 79 82 105 255 
-166.887 -211.818 -1232 77 71 98 255 
-164.747 -211.818 -1232 76 77 96 255 
-161.948 -210.958 -1227 76 68 95 255 
-159.296 -210.27 -1223 77 65 97 255 
-157.172 -210.27 -1223 74 66 99 255 
-154.541 -209.583 -1219 72 64 100 255 
-152.424 -209.583 -1219 74 71 101 255 
-150.307 -209.583 -1219 76 77 100 255 
-148.19 -209.583 -1219 77 76 100 255 
-146.073 -209.583 -1219 79 77 99 255 
-143.956 -209.583 -1219 79 77 98 255 
-141.257 -208.723 -1214 80 78 99 255 
-139.149 -208.723 -1214 78 77 100 255 
-137.04 -208.723 -1214 76 77 102 255 
-134.932 -208.723 -1214 78 77 105 255 
-132.824 -208.723 -1214 80 76 105 255 
-130.285 -208.035 -1210 80 74 106 255 
-128.183 -208.035 -1210 80 72 107 255 
-125.665 -207.348 -1206 79 72 108 255 
-123.571 -207.348 -1206 78 69 107 255 
-121.476 -207.348 -1206 79 72 106 255 
-119.382 -207.348 -1206 80 76 83 255 
-116.899 -206.66 -1202 64 48 60 255 
-114.811 -206.66 -1202 48 31 59 255 
-112.724 -206.66 -1202 34 39 58 255 
-110.636 -206.66 -1202 20 45 51 255 
-108.549 -206.66 -1202 28 32 44 255 
-106.461 -206.66 -1202 36 30 45 255 
-104.374 -206.66 -1202 33 23 46 255 
-102.286 -206.66 -1202 30 18 40 255 
-100.199 -206.66 -1202 34 23 35 255 
-98.1112 -206.66 -1202 38 27 28 255 
-96.0238 -206.66 -1202 39 25 22 255 
-93.9363 -206.66 -1202 41 25 19 255 
-91.8488 -206.66 -1202 38 24 17 255 
-89.7614 -206.66 -1202 35 19 17 255 
-87.6739 -206.66 -1202 38 17 17 255 
-85.5864 -206.66 -1202 42 15 26 255 
-83.7768 -207.348 -1206 42 19 36 255 
-81.6824 -207.348 -1206 43 21 23 255 
-79.8519 -208.035 -1210 30 22 11 255 
-77.7506 -208.035 -1210 18 30 7 255 
-75.6492 -208.035 -1210 25 31 4 255 
-73.791 -208.723 -1214 33 39 6 255 
-71.6827 -208.723 -1214 30 32 9 255 
-69.5743 -208.723 -1214 28 30 9 255 
-67.466 -208.723 -1214 33 30 10 255 
-65.6269 -209.583 -1219 39 35 11 255 
-63.5099 -209.583 -1219 38 29 13 255 
-61.3929 -209.583 -1219 38 26 13 255 
-59.2759 -209.583 -1219 41 22 14 255 
-57.1589 -209.583 -1219 45 20 14 255 
-55.0419 -209.583 -1219 39 21 14 255 
-53.0986 -210.27 -1223 34 24 20 255 
-50.9746 -210.27 -1223 28 21 27 255 
-49.0105 -210.958 -1227 23 24 22 255 
-47.0706 -211.818 -1232 31 19 18 255 
-45.0769 -212.505 -1236 39 17 14 255 
-42.9304 -212.505 -1236 32 20 11 255 
-40.9159 -213.193 -1240 26 24 12 255 
-38.9187 -214.053 -1245 30 23 14 255 
-36.7565 -214.053 -1245 35 22 15 255 
-34.7055 -214.741 -1249 41 18 16 255 
-32.6667 -215.6 -1254 48 17 16 255 
-30.6105 -216.46 -1259 41 18 16 255 
-28.9433 -220.414 -1282 35 21 13 255 
-26.9044 -221.962 -1291 29 21 11 255 
-24.586 -221.274 -1287 24 21 14 255 
-22.4204 -221.962 -1291 31 19 18 255 
-20.1783 -221.962 -1291 39 17 26 255 
-17.9363 -221.962 -1291 32 18 34 255 
-15.755 -222.821 -1296 26 20 23 255 
-13.5043 -222.821 -1296 20 20 12 255 
-11.297 -223.681 -1301 14 21 7 255 
-9.07235 -224.541 -1306 14 20 3 255 
-6.80426 -224.541 -1306 15 17 3 255 
-4.51881 -223.681 -1301 13 14 3 255 
-2.26809 -224.541 -1306 12 11 3 255 
0 -224.541 -1306 23 17 4 255 
2.26809 -224.541 -1306 35 26 9 255 
4.55354 -225.4 -1311 43 32 14 255 
6.83031 -225.4 -1311 51 41 17 255 
9.17655 -227.12 -1321 58 39 21 255 
11.5141 -227.979 -1326 66 39 24 255 
13.8169 -227.979 -1326 70 47 27 255 
16.1805 -228.839 -1331 75 64 36 255 
18.4226 -227.979 -1326 81 94 45 255 
20.7254 -227.979 -1326 88 146 77 255 
22.9414 -227.12 -1321 99 159 109 255 
25.14 -226.26 -1316 110 160 96 255 
27.217 -224.541 -1306 100 165 83 255 
29.4851 -224.541 -1306 91 172 80 255 
31.7532 -224.541 -1306 92 163 77 255 
34.0213 -224.541 -1306 94 167 61 255 
36.2894 -224.541 -1306 99 129 46 255 
-277.591 -229.414 -1321 217 190 203 255 
-275.296 -229.414 -1321 209 180 187 255 
-271.969 -228.545 -1316 202 149 161 255 
-268.659 -227.677 -1311 163 119 136 255 
-266.382 -227.677 -1311 124 75 106 255 
-263.098 -226.809 -1306 85 5 76 255 
-260.83 -226.809 -1306 47 50 85 255 
-257.572 -225.94 -1301 65 63 95 255 
-255.313 -225.94 -1301 84 68 99 255 
-252.081 -225.072 -1296 82 70 103 255 
-248.866 -224.204 -1291 81 71 106 255 
-246.624 -224.204 -1291 79 74 109 255 
-243.625 -223.509 -1287 77 77 105 255 
-241.39 -223.509 -1287 80 79 101 255 
-239.155 -223.509 -1287 83 78 102 255 
-235.999 -222.641 -1282 82 79 103 255 
-232.861 -221.772 -1277 81 78 107 255 
-230.643 -221.772 -1277 83 78 111 255 
-227.531 -220.904 -1272 86 78 107 255 
-225.322 -220.904 -1272 83 79 103 255 
-223.113 -220.904 -1272 81 78 103 255 
-220.904 -220.904 -1272 90 79 104 255 
-218.007 -220.209 -1268 99 78 107 255 
-215.805 -220.209 -1268 92 80 110 255 
-213.603 -220.209 -1268 85 80 107 255 
-210.567 -219.341 -1263 83 80 104 255 
-208.374 -219.341 -1263 82 77 101 255 
-206.181 -219.341 -1263 80 77 99 255 
-203.341 -218.646 -1259 79 75 96 255 
-200.356 -217.778 -1254 81 73 94 255 
-198.178 -217.778 -1254 83 77 101 255 
-195.219 -216.91 -1249 83 81 108 255 
-193.05 -216.91 -1249 83 80 103 255 
-190.881 -216.91 -1249 84 80 99 255 
-188.711 -216.91 -1249 86 76 103 255 
-185.945 -216.215 -1245 86 77 108 255 
-183.783 -216.215 -1245 86 76 105 255 
-181.621 -216.215 -1245 83 78 102 255 
-179.458 -216.215 -1245 81 74 100 255 
-176.584 -215.347 -1240 80 67 98 255 
-173.868 -214.652 -1236 79 60 96 255 
-171.722 -214.652 -1236 76 44 94 255 
-169.026 -213.957 -1232 74 53 91 255 
-166.887 -213.957 -1232 73 46 88 255 
-164.079 -213.089 -1227 72 55 87 255 
-161.948 -213.089 -1227 72 54 87 255 
-159.817 -213.089 -1227 72 58 89 255 
-157.172 -212.394 -1223 68 62 91 255 
-155.048 -212.394 -1223 65 61 92 255 
-152.424 -211.7 -1219 68 67 94 255 
-150.307 -211.7 -1219 72 67 94 255 
-148.19 -211.7 -1219 74 72 95 255 
-146.073 -211.7 -1219 76 72 94 255 
-143.956 -211.7 -1219 77 77 94 255 
-141.839 -211.7 -1219 78 74 95 255 
-139.149 -210.831 -1214 75 76 97 255 
-137.04 -210.831 -1214 73 73 97 255 
-134.932 -210.831 -1214 75 75 97 255 
-132.824 -210.831 -1214 77 72 98 255 
-130.285 -210.137 -1210 76 71 100 255 
-128.183 -210.137 -1210 76 69 101 255 
-125.665 -209.442 -1206 76 70 102 255 
-123.571 -209.442 -1206 76 67 100 255 
-121.476 -209.442 -1206 76 68 99 255 
-119.382 -209.442 -1206 76 67 84 255 
-116.899 -208.747 -1202 69 66 70 255 
-114.811 -208.747 -1202 63 45 65 255 
-112.724 -208.747 -1202 35 25 61 255 
-111.004 -209.442 -1206 7 25 47 255 
-108.549 -208.747 -1202 20 21 33 255 
-106.461 -208.747 -1202 34 27 43 255 
-104.374 -208.747 -1202 40 28 54 255 
-102.286 -208.747 -1202 47 30 48 255 
-100.199 -208.747 -1202 43 33 42 255 
-98.1112 -208.747 -1202 39 26 33 255 
-96.0238 -208.747 -1202 35 24 24 255 
-93.9363 -208.747 -1202 31 22 17 255 
-91.8488 -208.747 -1202 30 26 11 255 
-89.7614 -208.747 -1202 30 20 14 255 
-87.6739 -208.747 -1202 34 16 18 255 
-85.5864 -208.747 -1202 39 16 22 255 
-83.4989 -208.747 -1202 37 21 27 255 
-81.6824 -209.442 -1206 36 21 20 255 
-79.8519 -210.137 -1210 22 21 13 255 
-77.7506 -210.137 -1210 9 27 10 255 
-75.8993 -210.831 -1214 15 31 7 255 
-73.791 -210.831 -1214 21 31 10 255 
-71.6827 -210.831 -1214 21 30 13 255 
-69.5743 -210.831 -1214 22 27 12 255 
-67.466 -210.831 -1214 33 27 12 255 
-65.6269 -211.7 -1219 45 28 11 255 
-63.5099 -211.7 -1219 41 26 11 255 
-61.3929 -211.7 -1219 38 26 12 255 
-59.2759 -211.7 -1219 36 26 14 255 
-57.1589 -211.7 -1219 35 21 13 255 
-55.0419 -211.7 -1219 31 22 13 255 
-53.0986 -212.394 -1223 28 19 17 255 
-50.9746 -212.394 -1223 20 17 21 255 
-49.0105 -213.089 -1227 12 18 19 255 
-47.0706 -213.957 -1232 27 21 18 255 
-45.0769 -214.652 -1236 42 18 13 255 
-42.9304 -214.652 -1236 30 20 9 255 
-40.9159 -215.347 -1240 18 21 13 255 
-38.9187 -216.215 -1245 27 24 17 255 
-36.7565 -216.215 -1245 36 22 17 255 
-34.8445 -217.778 -1254 46 17 17 255 
-32.6667 -217.778 -1254 56 17 17 255 
-28.9433 -222.641 -1282 37 20 16 255 
-26.8211 -223.509 -1287 30 26 14 255 
-24.6624 -224.204 -1291 23 22 15 255 
-22.4204 -224.204 -1291 33 21 16 255 
-20.1783 -224.204 -1291 44 17 18 255 
-17.9363 -224.204 -1291 33 17 21 255 
-15.6943 -224.204 -1291 23 17 14 255 
-13.5043 -225.072 -1296 16 17 8 255 
-11.297 -225.94 -1301 9 16 5 255 
-9.07235 -226.809 -1306 9 17 2 255 
-6.80426 -226.809 -1306 10 16 3 255 
-4.51881 -225.94 -1301 9 13 4 255 
-2.26809 -226.809 -1306 8 14 5 255 
0 -226.809 -1306 27 23 6 255 
2.26809 -226.809 -1306 46 32 10 255 
4.55354 -227.677 -1311 55 40 14 255 
6.83031 -227.677 -1311 64 42 18 255 
9.21128 -230.282 -1326 71 42 23 255 
11.5575 -231.15 -1331 79 44 26 255 
13.869 -231.15 -1331 83 50 29 255 
16.1805 -231.15 -1331 88 85 45 255 
18.4226 -230.282 -1326 87 124 61 255 
20.7254 -230.282 -1326 87 147 77 255 
22.9414 -229.414 -1321 99 165 94 255 
25.14 -228.545 -1316 111 162 88 255 
27.217 -226.809 -1306 102 161 82 255 
29.4851 -226.809 -1306 93 164 80 255 
31.7532 -226.809 -1306 95 159 78 255 
34.0213 -226.809 -1306 97 154 66 255 
36.1505 -225.94 -1301 104 138 55 255 
-274.254 -230.831 -1316 206 190 226 255 
-271.969 -230.831 -1316 201 202 213 255 
-268.659 -229.954 -1311 183 162 201 255 
-266.382 -229.954 -1311 165 149 125 255 
-263.098 -229.077 -1306 132 92 50 255 
-260.83 -229.077 -1306 100 64 69 255 
-258.562 -229.077 -1306 82 54 89 255 
-255.313 -228.2 -1301 64 68 94 255 
-252.081 -227.323 -1296 73 63 99 255 
-248.866 -226.446 -1291 82 70 99 255 
-246.624 -226.446 -1291 80 70 100 255 
-244.382 -226.446 -1291 78 78 99 255 
-241.39 -225.744 -1287 82 75 98 255 
-239.155 -225.744 -1287 86 76 100 255 
-235.999 -224.867 -1282 80 77 102 255 
-232.861 -223.99 -1277 75 78 103 255 
-230.643 -223.99 -1277 85 76 105 255 
-227.531 -223.113 -1272 95 76 103 255 
-225.322 -223.113 -1272 90 76 102 255 
-223.113 -223.113 -1272 86 78 102 255 
-220.904 -223.113 -1272 89 77 103 255 
-218.007 -222.411 -1268 93 76 104 255 
-215.805 -222.411 -1268 89 79 106 255 
-213.603 -222.411 -1268 86 83 104 255 
-210.567 -221.534 -1263 84 80 103 255 
-208.374 -221.534 -1263 82 80 101 255 
-205.528 -220.833 -1259 80 78 100 255 
-202.534 -219.956 -1254 78 77 95 255 
-200.356 -219.956 -1254 79 75 91 255 
-198.178 -219.956 -1254 81 76 97 255 
-195.219 -219.079 -1249 80 78 103 255 
-193.05 -219.079 -1249 80 79 99 255 
-190.881 -219.079 -1249 81 76 96 255 
-188.711 -219.079 -1249 83 72 103 255 
-185.945 -218.377 -1245 83 73 111 255 
-183.783 -218.377 -1245 83 74 105 255 
-181.621 -218.377 -1245 82 73 99 255 
-179.458 -218.377 -1245 82 71 95 255 
-176.584 -217.5 -1240 80 64 92 255 
-173.868 -216.799 -1236 78 53 84 255 
-171.722 -216.799 -1236 73 47 76 255 
-169.026 -216.097 -1232 69 42 77 255 
-166.887 -216.097 -1232 62 44 79 255 
-164.079 -215.22 -1227 55 46 79 255 
-161.948 -215.22 -1227 59 51 80 255 
-159.817 -215.22 -1227 64 54 82 255 
-157.172 -214.518 -1223 63 55 84 255 
-155.048 -214.518 -1223 62 55 85 255 
-152.924 -214.518 -1223 64 56 87 255 
-150.307 -213.817 -1219 67 53 89 255 
-148.19 -213.817 -1219 68 60 91 255 
-146.073 -213.817 -1219 70 64 91 255 
-143.956 -213.817 -1219 71 67 91 255 
-141.839 -213.817 -1219 73 66 92 255 
-139.149 -212.94 -1214 71 68 94 255 
-137.04 -212.94 -1214 70 68 92 255 
-134.932 -212.94 -1214 73 67 90 255 
-132.824 -212.94 -1214 76 67 92 255 
-130.285 -212.238 -1210 76 66 94 255 
-128.183 -212.238 -1210 76 67 95 255 
-125.665 -211.536 -1206 75 64 97 255 
-123.571 -211.536 -1206 74 62 95 255 
-121.073 -210.835 -1202 73 62 93 255 
-118.986 -210.835 -1202 73 60 86 255 
-116.899 -210.835 -1202 73 61 80 255 
-114.811 -210.835 -1202 73 60 72 255 
-112.724 -210.835 -1202 53 37 65 255 
-110.636 -210.835 -1202 33 11 43 255 
-108.549 -210.835 -1202 38 21 22 255 
-106.461 -210.835 -1202 44 32 42 255 
-104.374 -210.835 -1202 53 38 62 255 
-102.286 -210.835 -1202 62 44 55 255 
-100.199 -210.835 -1202 52 31 49 255 
-98.1112 -210.835 -1202 42 24 38 255 
-96.0238 -210.835 -1202 32 19 27 255 
-93.9363 -210.835 -1202 23 14 16 255 
-91.8488 -210.835 -1202 26 19 6 255 
-89.7614 -210.835 -1202 30 20 13 255 
-87.6739 -210.835 -1202 32 16 20 255 
-85.5864 -210.835 -1202 35 15 19 255 
-83.4989 -210.835 -1202 37 18 18 255 
-81.6824 -211.536 -1206 40 21 17 255 
-79.8519 -212.238 -1210 28 21 16 255 
-77.7506 -212.238 -1210 17 26 13 255 
-75.6492 -212.238 -1210 19 26 10 255 
-73.791 -212.94 -1214 22 26 14 255 
-71.6827 -212.94 -1214 23 27 18 255 
-69.5743 -212.94 -1214 24 25 16 255 
-67.466 -212.94 -1214 31 26 14 255 
-65.3577 -212.94 -1214 38 26 11 255 
-63.5099 -213.817 -1219 36 26 9 255 
-61.1411 -212.94 -1214 34 26 11 255 
-59.2759 -213.817 -1219 35 22 14 255 
-57.1589 -213.817 -1219 37 19 13 255 
-55.0419 -213.817 -1219 36 18 12 255 
-53.0986 -214.518 -1223 36 14 14 255 
-50.9746 -214.518 -1223 28 14 16 255 
-49.0105 -215.22 -1227 21 12 17 255 
-47.0706 -216.097 -1232 28 15 18 255 
-45.0769 -216.799 -1236 36 17 12 255 
-42.9304 -216.799 -1236 27 18 7 255 
-40.9159 -217.5 -1240 19 18 14 255 
-38.9187 -218.377 -1245 26 23 21 255 
-36.7565 -218.377 -1245 33 26 19 255 
-34.8445 -219.956 -1254 40 19 18 255 
-32.797 -220.833 -1259 47 17 19 255 
-29.0562 -225.744 -1287 37 18 19 255 
-26.9044 -226.446 -1291 31 20 17 255 
-24.6624 -226.446 -1291 25 21 16 255 
-22.4204 -226.446 -1291 30 17 15 255 
-20.1783 -226.446 -1291 36 16 12 255 
-17.9363 -226.446 -1291 27 13 9 255 
-15.755 -227.323 -1296 19 14 6 255 
-13.5043 -227.323 -1296 12 14 4 255 
-11.297 -228.2 -1301 5 12 2 255 
-9.07235 -229.077 -1306 8 15 1 255 
-6.80426 -229.077 -1306 12 18 3 255 
-4.51881 -228.2 -1301 15 11 5 255 
-2.26809 -229.077 -1306 19 9 6 255 
0 -229.077 -1306 33 27 8 255 
2.26809 -229.077 -1306 47 41 11 255 
4.55354 -229.954 -1311 57 42 14 255 
9.32243 -235.391 -1342 72 46 25 255 
11.653 -235.391 -1342 77 46 28 255 
13.9836 -235.391 -1342 80 72 31 255 
16.2413 -234.339 -1336 83 102 54 255 
18.492 -233.462 -1331 82 130 77 255 
20.7254 -232.585 -1326 82 155 78 255 
22.9414 -231.708 -1321 90 159 79 255 
25.0445 -229.954 -1311 99 163 80 255 
27.217 -229.077 -1306 96 163 82 255 
29.4851 -229.077 -1306 93 166 80 255 
31.7532 -229.077 -1306 95 158 79 255 
34.0213 -229.077 -1306 98 154 71 255 
36.2894 -229.077 -1306 104 132 64 255 
-268.659 -232.231 -1311 203 181 211 255 
-266.382 -232.231 -1311 206 167 170 255 
-263.098 -231.345 -1306 180 152 130 255 
-260.83 -231.345 -1306 154 104 120 255 
-258.562 -231.345 -1306 99 21 110 255 
-255.313 -230.459 -1301 44 55 95 255 
-253.053 -230.459 -1301 64 45 81 255 
-249.83 -229.573 -1296 84 58 89 255 
-246.624 -228.688 -1291 82 60 97 255 
-244.382 -228.688 -1291 80 68 95 255 
-241.39 -227.979 -1287 85 69 94 255 
-239.155 -227.979 -1287 90 72 97 255 
-235.999 -227.093 -1282 80 76 101 255 
-232.861 -226.208 -1277 70 73 104 255 
-230.643 -226.208 -1277 87 73 107 255 
-227.531 -225.322 -1272 104 74 103 255 
-225.322 -225.322 -1272 98 73 100 255 
-223.113 -225.322 -1272 92 75 101 255 
-220.209 -224.614 -1268 90 75 102 255 
-218.007 -224.614 -1268 88 76 102 255 
-215.805 -224.614 -1268 88 79 103 255 
-213.603 -224.614 -1268 88 79 101 255 
-210.567 -223.728 -1263 85 79 100 255 
-208.374 -223.728 -1263 83 79 100 255 
-205.528 -223.019 -1259 80 81 100 255 
-202.534 -222.134 -1254 77 78 97 255 
-200.356 -222.134 -1254 78 77 94 255 
-198.178 -222.134 -1254 80 76 98 255 
-196 -222.134 -1254 79 77 102 255 
-193.05 -221.248 -1249 78 76 100 255 
-190.881 -221.248 -1249 79 74 98 255 
-188.711 -221.248 -1249 81 71 101 255 
-185.945 -220.539 -1245 80 72 105 255 
-183.783 -220.539 -1245 80 72 101 255 
-181.621 -220.539 -1245 81 72 97 255 
-178.738 -219.654 -1240 83 69 93 255 
-176.584 -219.654 -1240 80 66 89 255 
-173.868 -218.945 -1236 77 57 82 255 
-171.722 -218.945 -1236 70 52 75 255 
-169.026 -218.236 -1232 64 46 72 255 
-166.887 -218.236 -1232 51 44 70 255 
-164.747 -218.236 -1232 38 46 72 255 
-161.948 -217.351 -1227 47 51 74 255 
-159.817 -217.351 -1227 56 50 72 255 
-157.172 -216.642 -1223 58 50 71 255 
-155.048 -216.642 -1223 60 50 76 255 
-152.924 -216.642 -1223 61 51 81 255 
-150.307 -215.934 -1219 63 51 82 255 
-148.19 -215.934 -1219 64 55 83 255 
-146.073 -215.934 -1219 65 58 85 255 
-143.956 -215.934 -1219 67 62 88 255 
-141.839 -215.934 -1219 69 61 88 255 
-139.149 -215.048 -1214 68 63 89 255 
-137.04 -215.048 -1214 68 62 87 255 
-134.932 -215.048 -1214 72 62 86 255 
-132.824 -215.048 -1214 76 62 87 255 
-130.285 -214.339 -1210 76 62 89 255 
-128.183 -214.339 -1210 77 61 90 255 
-126.082 -214.339 -1210 75 61 91 255 
-123.571 -213.631 -1206 73 59 90 255 
-121.476 -213.631 -1206 71 60 89 255 
-119.382 -213.631 -1206 70 59 84 255 
-116.899 -212.922 -1202 76 59 80 255 
-114.811 -212.922 -1202 83 57 74 255 
-112.724 -212.922 -1202 71 55 68 255 
-110.636 -212.922 -1202 60 33 54 255 
-108.549 -212.922 -1202 57 23 40 255 
-106.461 -212.922 -1202 55 29 55 255 
-104.374 -212.922 -1202 66 50 71 255 
-102.286 -212.922 -1202 77 43 60 255 
-100.199 -212.922 -1202 61 26 49 255 
-98.1112 -212.922 -1202 45 21 38 255 
-96.0238 -212.922 -1202 30 17 28 255 
-93.9363 -212.922 -1202 15 15 20 255 
-91.8488 -212.922 -1202 22 16 13 255 
-89.7614 -212.922 -1202 30 16 15 255 
-87.6739 -212.922 -1202 30 14 18 255 
-85.5864 -212.922 -1202 31 16 15 255 
-83.7768 -213.631 -1206 38 17 13 255 
-81.6824 -213.631 -1206 45 18 14 255 
-79.8519 -214.339 -1210 35 17 16 255 
-77.7506 -214.339 -1210 26 21 14 255 
-75.6492 -214.339 -1210 24 22 12 255 
-73.5478 -214.339 -1210 23 25 15 255 
-71.6827 -215.048 -1214 24 28 19 255 
-69.5743 -215.048 -1214 26 26 18 255 
-67.466 -215.048 -1214 28 27 17 255 
-65.3577 -215.048 -1214 31 24 16 255 
-63.2494 -215.048 -1214 31 26 16 255 
-61.1411 -215.048 -1214 31 23 16 255 
-59.2759 -215.934 -1219 35 20 17 255 
-57.1589 -215.934 -1219 39 19 14 255 
-55.0419 -215.934 -1219 41 20 12 255 
-53.0986 -216.642 -1223 44 16 15 255 
-50.9746 -216.642 -1223 37 14 18 255 
-49.0105 -217.351 -1227 30 13 20 255 
-47.0706 -218.236 -1232 30 14 23 255 
-45.0769 -218.945 -1236 31 16 16 255 
-42.9304 -218.945 -1236 26 20 10 255 
-40.9159 -219.654 -1240 21 21 14 255 
-38.9187 -220.539 -1245 25 25 19 255 
-36.7565 -220.539 -1245 30 23 17 255 
-34.9834 -223.019 -1259 34 20 15 255 
-31.3885 -228.688 -1291 38 16 18 255 
-29.0562 -227.979 -1287 38 16 16 255 
-26.9044 -228.688 -1291 32 18 14 255 
-24.6624 -228.688 -1291 27 16 13 255 
-22.4204 -228.688 -1291 28 12 13 255 
-20.1783 -228.688 -1291 29 10 11 255 
-17.9363 -228.688 -1291 22 8 9 255 
-15.755 -229.573 -1296 15 11 6 255 
-13.5043 -229.573 -1296 8 14 3 255 
-11.297 -230.459 -1301 1 12 3 255 
-9.07235 -231.345 -1306 8 13 4 255 
-6.80426 -231.345 -1306 15 12 5 255 
-4.53617 -231.345 -1306 22 8 6 255 
-2.26809 -231.345 -1306 30 18 8 255 
0 -231.345 -1306 39 38 10 255 
2.26809 -231.345 -1306 48 41 13 255 
4.58827 -234.002 -1321 60 42 17 255 
7.01787 -238.608 -1347 72 45 21 255 
9.39189 -239.493 -1352 74 50 26 255 
11.7399 -239.493 -1352 76 68 33 255 
14.0878 -239.493 -1352 77 92 40 255 
16.3142 -237.722 -1342 78 110 52 255 
18.492 -235.773 -1331 77 140 64 255 
20.6472 -234.002 -1321 77 146 69 255 
22.7677 -232.231 -1311 82 153 75 255 
24.949 -231.345 -1306 87 158 76 255 
27.217 -231.345 -1306 90 163 77 255 
29.4851 -231.345 -1306 93 161 77 255 
31.7532 -231.345 -1306 96 155 77 255 
34.0213 -231.345 -1306 99 147 74 255 
36.1505 -230.459 -1301 104 130 71 255 
-264.105 -234.507 -1311 189 175 211 255 
-260.83 -233.613 -1306 177 182 171 255 
-258.562 -233.613 -1306 145 115 131 255 
-256.294 -233.613 -1306 114 87 97 255 
-253.053 -232.719 -1301 95 77 64 255 
-250.794 -232.719 -1301 76 59 79 255 
-247.579 -231.824 -1296 71 60 94 255 
-244.382 -230.93 -1291 66 69 92 255 
-242.14 -230.93 -1291 76 68 90 255 
-239.155 -230.214 -1287 86 71 95 255 
-235.999 -229.32 -1282 80 71 100 255 
-233.773 -229.32 -1282 74 68 104 255 
-230.643 -228.426 -1277 84 72 109 255 
-228.426 -228.426 -1277 94 76 104 255 
-225.322 -227.531 -1272 91 75 99 255 
-223.113 -227.531 -1272 88 76 100 255 
-220.904 -227.531 -1272 87 75 102 255 
-218.007 -226.816 -1268 87 74 101 255 
-215.805 -226.816 -1268 90 76 100 255 
-213.603 -226.816 -1268 94 78 98 255 
-210.567 -225.921 -1263 89 78 97 255 
-208.374 -225.921 -1263 84 78 99 255 
-204.711 -224.311 -1254 81 78 101 255 
-202.534 -224.311 -1254 78 80 99 255 
-200.356 -224.311 -1254 79 77 98 255 
-198.178 -224.311 -1254 80 77 100 255 
-195.219 -223.417 -1249 80 76 102 255 
-193.05 -223.417 -1249 81 76 101 255 
-190.881 -223.417 -1249 80 72 100 255 
-188.711 -223.417 -1249 80 68 100 255 
-185.945 -222.701 -1245 80 71 100 255 
-183.783 -222.701 -1245 81 72 98 255 
-181.621 -222.701 -1245 81 69 96 255 
-179.458 -222.701 -1245 81 67 91 255 
-176.584 -221.807 -1240 78 63 87 255 
-173.868 -221.092 -1236 75 60 80 255 
-171.722 -221.092 -1236 69 53 74 255 
-169.575 -221.092 -1236 64 49 68 255 
-166.887 -220.376 -1232 55 46 62 255 
-164.747 -220.376 -1232 47 46 65 255 
-161.948 -219.482 -1227 54 48 68 255 
-159.817 -219.482 -1227 62 46 63 255 
-157.686 -219.482 -1227 60 46 58 255 
-155.048 -218.766 -1223 58 47 67 255 
-152.924 -218.766 -1223 55 47 76 255 
-150.8 -218.766 -1223 52 48 76 255 
-148.676 -218.766 -1223 55 49 76 255 
-146.073 -218.051 -1219 58 53 80 255 
-143.956 -218.051 -1219 59 54 85 255 
-141.839 -218.051 -1219 61 54 85 255 
-139.149 -217.156 -1214 63 55 85 255 
-137.04 -217.156 -1214 65 59 83 255 
-134.932 -217.156 -1214 67 58 82 255 
-132.824 -217.156 -1214 70 59 83 255 
-130.285 -216.441 -1210 71 59 84 255 
-128.183 -216.441 -1210 72 58 85 255 
-125.665 -215.725 -1206 70 57 86 255 
-123.571 -215.725 -1206 69 56 86 255 
-121.476 -215.725 -1206 67 57 86 255 
-119.382 -215.725 -1206 66 59 83 255 
-117.288 -215.725 -1206 71 57 81 255 
-114.811 -215.01 -1202 76 55 76 255 
-112.724 -215.01 -1202 69 52 71 255 
-110.636 -215.01 -1202 63 44 65 255 
-108.549 -215.01 -1202 59 29 59 255 
-106.461 -215.01 -1202 56 12 70 255 
-104.374 -215.01 -1202 59 37 81 255 
-102.286 -215.01 -1202 63 55 65 255 
-100.199 -215.01 -1202 53 29 49 255 
-98.1112 -215.01 -1202 43 19 39 255 
-96.0238 -215.01 -1202 31 18 30 255 
-93.9363 -215.01 -1202 20 17 25 255 
-91.8488 -215.01 -1202 27 16 20 255 
-89.7614 -215.01 -1202 34 17 18 255 
-87.6739 -215.01 -1202 31 18 16 255 
-85.5864 -215.01 -1202 28 21 12 255 
-83.4989 -215.01 -1202 33 19 9 255 
-81.6824 -215.725 -1206 38 19 12 255 
-79.8519 -216.441 -1210 33 20 16 255 
-77.4935 -215.725 -1206 28 21 15 255 
-75.6492 -216.441 -1210 26 22 15 255 
-73.5478 -216.441 -1210 24 27 17 255 
-71.4465 -216.441 -1210 26 26 20 255 
-69.3451 -216.441 -1210 29 26 20 255 
-67.466 -217.156 -1214 29 24 20 255 
-65.3577 -217.156 -1214 29 20 21 255 
-63.2494 -217.156 -1214 27 22 23 255 
-61.1411 -217.156 -1214 26 23 22 255 
-59.2759 -218.051 -1219 29 20 21 255 
-57.1589 -218.051 -1219 32 19 16 255 
-55.0419 -218.051 -1219 36 17 12 255 
-53.0986 -218.766 -1223 40 17 16 255 
-50.9746 -218.766 -1223 36 14 21 255 
-49.0105 -219.482 -1227 33 13 24 255 
-47.0706 -220.376 -1232 33 13 28 255 
-45.0769 -221.092 -1236 34 14 21 255 
-42.9304 -221.092 -1236 29 18 14 255 
-40.9159 -221.807 -1240 25 24 15 255 
-38.7624 -221.807 -1240 26 25 17 255 
-36.7565 -222.701 -1245 27 24 15 255 
-34.8445 -224.311 -1254 29 20 13 255 
-33.6306 -230.93 -1291 32 17 14 255 
-31.2913 -230.214 -1287 32 15 16 255 
-29.0562 -230.214 -1287 32 14 13 255 
-26.9044 -230.93 -1291 28 12 11 255 
-24.6624 -230.93 -1291 24 13 11 255 
-22.4204 -230.93 -1291 25 9 11 255 
-20.1783 -230.93 -1291 26 4 10 255 
-17.9363 -230.93 -1291 20 6 10 255 
-15.755 -231.824 -1296 15 9 6 255 
-13.5564 -232.719 -1301 10 12 3 255 
-11.297 -232.719 -1301 5 13 5 255 
-9.07235 -233.613 -1306 11 12 7 255 
-6.80426 -233.613 -1306 18 12 7 255 
-4.53617 -233.613 -1306 29 13 7 255 
-2.26809 -233.613 -1306 40 20 9 255 
0 -233.613 -1306 49 32 12 255 
2.27677 -234.507 -1311 59 43 16 255 
4.64037 -238.979 -1336 70 41 20 255 
7.04392 -241.841 -1352 82 42 23 255 
9.43357 -242.915 -1358 77 64 27 255 
11.792 -242.915 -1358 72 87 38 255 
14.0878 -241.841 -1352 73 99 49 255 
16.4358 -241.841 -1352 74 108 50 255 
18.0752 -232.719 -1301 74 128 51 255 
20.3346 -232.719 -1301 75 140 61 255 
22.594 -232.719 -1301 79 146 71 255 
24.8534 -232.719 -1301 84 156 72 255 
27.1128 -232.719 -1301 87 158 73 255 
29.3722 -232.719 -1301 90 160 74 255 
31.7532 -233.613 -1306 95 158 76 255 
34.0213 -233.613 -1306 101 152 77 255 
36.2894 -233.613 -1306 106 115 79 255 
-261.829 -236.784 -1311 200 178 197 255 
-258.562 -235.881 -1306 192 174 179 255 
-256.294 -235.881 -1306 185 144 150 255 
-254.026 -235.881 -1306 127 119 121 255 
-250.794 -234.978 -1301 69 88 102 255 
-248.534 -234.978 -1301 60 55 83 255 
-245.328 -234.075 -1296 52 60 85 255 
-243.078 -234.075 -1296 67 65 88 255 
-239.898 -233.172 -1291 83 68 92 255 
-236.92 -232.449 -1287 81 71 97 255 
-233.773 -231.546 -1282 79 71 100 255 
-231.546 -231.546 -1282 82 74 104 255 
-228.426 -230.643 -1277 85 76 101 255 
-225.322 -229.74 -1272 84 78 99 255 
-223.113 -229.74 -1272 84 76 102 255 
-220.904 -229.74 -1272 85 77 105 255 
-218.695 -229.74 -1272 87 74 102 255 
-215.805 -229.018 -1268 93 75 99 255 
-213.603 -229.018 -1268 100 76 97 255 
-210.567 -228.115 -1263 93 77 95 255 
-208.374 -228.115 -1263 86 76 98 255 
-205.528 -227.392 -1259 83 76 101 255 
-202.534 -226.489 -1254 80 78 100 255 
-199.557 -225.586 -1249 80 78 99 255 
-198.178 -226.489 -1254 81 77 99 255 
-195.219 -225.586 -1249 82 78 100 255 
-193.05 -225.586 -1249 84 75 98 255 
-190.881 -225.586 -1249 82 73 97 255 
-188.711 -225.586 -1249 80 72 95 255 
-185.945 -224.864 -1245 81 74 93 255 
-183.783 -224.864 -1245 83 70 93 255 
-181.621 -224.864 -1245 81 69 94 255 
-179.458 -224.864 -1245 80 65 91 255 
-176.584 -223.961 -1240 77 61 88 255 
-173.868 -223.238 -1236 74 59 80 255 
-171.722 -223.238 -1236 69 55 73 255 
-169.026 -222.516 -1232 64 51 64 255 
-166.887 -222.516 -1232 60 49 55 255 
-164.747 -222.516 -1232 56 47 60 255 
-161.948 -221.613 -1227 62 50 65 255 
-159.817 -221.613 -1227 68 46 64 255 
-157.686 -221.613 -1227 62 43 63 255 
-155.048 -220.89 -1223 56 45 68 255 
-152.924 -220.89 -1223 48 46 73 255 
-150.8 -220.89 -1223 41 44 71 255 
-148.676 -220.89 -1223 46 43 69 255 
-146.073 -220.168 -1219 52 47 72 255 
-143.956 -220.168 -1219 53 50 76 255 
-141.839 -220.168 -1219 54 49 77 255 
-139.149 -219.265 -1214 58 48 78 255 
-137.04 -219.265 -1214 63 50 78 255 
-134.932 -219.265 -1214 64 55 78 255 
-132.386 -218.542 -1210 65 54 79 255 
-130.285 -218.542 -1210 66 58 81 255 
-128.183 -218.542 -1210 67 56 81 255 
-125.665 -217.82 -1206 66 56 82 255 
-123.571 -217.82 -1206 65 55 83 255 
-121.476 -217.82 -1206 63 56 84 255 
-119.382 -217.82 -1206 62 56 82 255 
-116.899 -217.097 -1202 65 56 80 255 
-114.811 -217.097 -1202 69 56 76 255 
-112.724 -217.097 -1202 68 55 73 255 
-110.636 -217.097 -1202 67 46 67 255 
-108.549 -217.097 -1202 62 38 61 255 
-106.461 -217.097 -1202 58 30 64 255 
-104.374 -217.097 -1202 53 32 67 255 
-102.286 -217.097 -1202 49 32 56 255 
-100.199 -217.097 -1202 45 19 45 255 
-97.7031 -216.194 -1197 42 19 38 255 
-95.6243 -216.194 -1197 34 19 32 255 
-93.5455 -216.194 -1197 26 18 27 255 
-91.8488 -217.097 -1202 32 16 23 255 
-89.7614 -217.097 -1202 39 18 20 255 
-87.6739 -217.097 -1202 32 21 18 255 
-85.5864 -217.097 -1202 25 21 16 255 
-83.4989 -217.097 -1202 28 22 14 255 
-81.6824 -217.82 -1206 31 23 14 255 
-79.8519 -218.542 -1210 30 26 15 255 
-77.4935 -217.82 -1206 30 23 12 255 
-75.6492 -218.542 -1210 28 20 10 255 
-73.5478 -218.542 -1210 26 23 18 255 
-71.4465 -218.542 -1210 29 26 27 255 
-69.3451 -218.542 -1210 33 25 22 255 
-67.2437 -218.542 -1210 30 26 17 255 
-65.3577 -219.265 -1214 27 22 17 255 
-63.2494 -219.265 -1214 24 21 17 255 
-61.1411 -219.265 -1214 22 20 18 255 
-59.2759 -220.168 -1219 23 18 19 255 
-57.1589 -220.168 -1219 25 15 16 255 
-55.0419 -220.168 -1219 31 15 14 255 
-53.0986 -220.89 -1223 37 14 16 255 
-50.9746 -220.89 -1223 36 14 19 255 
-49.0105 -221.613 -1227 36 13 18 255 
-47.0706 -222.516 -1232 37 14 18 255 
-45.0769 -223.238 -1236 38 15 15 255 
-42.9304 -223.238 -1236 34 17 13 255 
-40.9159 -223.961 -1240 30 23 14 255 
-38.7624 -223.961 -1240 27 27 16 255 
-36.7565 -224.864 -1245 25 22 18 255 
-34.9834 -227.392 -1259 25 22 21 255 
-33.3961 -231.546 -1282 26 16 17 255 
-31.2913 -232.449 -1287 26 16 13 255 
-29.0562 -232.449 -1287 26 11 9 255 
-26.9044 -233.172 -1291 23 5 6 255 
-24.6624 -233.172 -1291 21 7 12 255 
-22.4204 -233.172 -1291 22 8 18 255 
-20.2565 -234.075 -1296 24 5 14 255 
-18.0058 -234.075 -1296 19 5 11 255 
-15.755 -234.075 -1296 15 9 6 255 
-13.5564 -234.978 -1301 12 12 2 255 
-11.3404 -235.881 -1306 10 11 4 255 
-9.07235 -235.881 -1306 15 12 6 255 
-6.83031 -236.784 -1311 21 12 7 255 
-4.53617 -235.881 -1306 36 14 8 255 
-2.27677 -236.784 -1311 51 26 13 255 
0 -236.784 -1311 61 30 19 255 
2.29414 -238.59 -1321 71 39 25 255 
4.66121 -242.383 -1342 82 41 31 255 
14.0878 -244.189 -1352 70 113 50 255 
16.4358 -244.189 -1352 71 115 52 255 
17.9363 -233.172 -1291 72 124 54 255 
20.1783 -233.172 -1291 73 133 62 255 
22.4204 -233.172 -1291 77 137 70 255 
24.7579 -234.075 -1296 82 146 71 255 
27.1128 -234.978 -1301 85 154 72 255 
29.3722 -234.978 -1301 88 158 78 255 
31.6316 -234.978 -1301 95 165 84 255 
34.0213 -235.881 -1306 103 139 75 255 
36.2894 -235.881 -1306 108 99 66 255 
38.5575 -235.881 -1306 113 83 65 255 
-259.552 -239.061 -1311 196 183 228 255 
-257.275 -239.061 -1311 193 197 203 255 
-254.026 -238.149 -1306 162 154 178 255 
-251.758 -238.149 -1306 131 120 125 255 
-248.534 -237.237 -1301 110 86 72 255 
-246.275 -237.237 -1301 89 53 79 255 
-244.016 -237.237 -1301 81 58 87 255 
-240.827 -236.326 -1296 74 68 90 255 
-236.92 -234.684 -1287 72 68 94 255 
-234.684 -234.684 -1287 70 75 96 255 
-231.546 -233.773 -1282 75 71 99 255 
-229.32 -233.773 -1282 81 76 99 255 
-226.208 -232.861 -1277 81 75 100 255 
-223.113 -231.949 -1272 82 76 104 255 
-220.904 -231.949 -1272 83 73 108 255 
-218.695 -231.949 -1272 85 72 103 255 
-215.805 -231.22 -1268 89 74 99 255 
-213.603 -231.22 -1268 93 77 96 255 
-211.401 -231.22 -1268 88 77 94 255 
-208.374 -230.308 -1263 84 77 98 255 
-205.528 -229.579 -1259 82 77 102 255 
-202.534 -228.667 -1254 80 79 101 255 
-200.356 -228.667 -1254 81 77 100 255 
-198.178 -228.667 -1254 83 76 99 255 
-195.219 -227.755 -1249 87 77 99 255 
-193.05 -227.755 -1249 91 76 97 255 
-190.881 -227.755 -1249 87 75 95 255 
-188.107 -227.026 -1245 83 76 91 255 
-185.945 -227.026 -1245 82 72 87 255 
-183.783 -227.026 -1245 82 67 90 255 
-180.891 -226.114 -1240 80 67 93 255 
-178.738 -226.114 -1240 79 66 91 255 
-176.015 -225.385 -1236 74 63 89 255 
-173.868 -225.385 -1236 69 62 80 255 
-171.722 -225.385 -1236 66 57 72 255 
-169.575 -225.385 -1236 64 54 60 255 
-166.887 -224.655 -1232 60 48 49 255 
-164.747 -224.655 -1232 56 47 56 255 
-161.948 -223.743 -1227 56 47 63 255 
-159.817 -223.743 -1227 57 46 66 255 
-157.686 -223.743 -1227 56 44 69 255 
-155.555 -223.743 -1227 55 47 69 255 
-152.924 -223.014 -1223 50 44 70 255 
-150.8 -223.014 -1223 45 42 66 255 
-148.676 -223.014 -1223 49 42 63 255 
-146.073 -222.285 -1219 53 44 65 255 
-143.956 -222.285 -1219 54 44 67 255 
-141.839 -222.285 -1219 56 45 69 255 
-139.149 -221.373 -1214 58 43 72 255 
-137.04 -221.373 -1214 60 41 73 255 
-134.932 -221.373 -1214 59 45 74 255 
-132.386 -220.643 -1210 58 46 76 255 
-130.285 -220.643 -1210 59 51 79 255 
-128.183 -220.643 -1210 60 52 78 255 
-125.665 -219.914 -1206 59 52 78 255 
-123.571 -219.914 -1206 59 53 80 255 
-121.476 -219.914 -1206 58 54 83 255 
-119.382 -219.914 -1206 58 54 81 255 
-116.899 -219.185 -1202 61 56 79 255 
-114.811 -219.185 -1202 64 59 77 255 
-112.724 -219.185 -1202 64 53 76 255 
-110.636 -219.185 -1202 64 50 69 255 
-108.549 -219.185 -1202 59 44 63 255 
-106.461 -219.185 -1202 55 41 58 255 
-104.374 -219.185 -1202 50 29 54 255 
-102.286 -219.185 -1202 45 23 48 255 
-100.199 -219.185 -1202 42 23 42 255 
-97.7031 -218.273 -1197 40 21 38 255 
-95.6243 -218.273 -1197 35 21 34 255 
-93.5455 -218.273 -1197 30 21 30 255 
-91.4668 -218.273 -1197 39 21 26 255 
-89.7614 -219.185 -1202 48 22 23 255 
-87.6739 -219.185 -1202 38 22 20 255 
-85.5864 -219.185 -1202 28 24 19 255 
-83.4989 -219.185 -1202 29 24 19 255 
-81.6824 -219.914 -1206 31 26 17 255 
-79.588 -219.914 -1206 30 26 15 255 
-77.4935 -219.914 -1206 30 28 10 255 
-75.3991 -219.914 -1206 28 23 5 255 
-73.5478 -220.643 -1210 26 22 20 255 
-71.4465 -220.643 -1210 33 21 35 255 
-69.3451 -220.643 -1210 40 22 24 255 
-67.2437 -220.643 -1210 33 22 14 255 
-65.3577 -221.373 -1214 27 23 12 255 
-63.2494 -221.373 -1214 21 22 11 255 
-61.1411 -221.373 -1214 16 22 14 255 
-59.2759 -222.285 -1219 22 16 17 255 
-57.1589 -222.285 -1219 28 10 16 255 
-55.0419 -222.285 -1219 31 10 16 255 
-52.9249 -222.285 -1219 34 11 17 255 
-50.9746 -223.014 -1223 36 11 18 255 
-49.0105 -223.743 -1227 39 12 13 255 
-47.0706 -224.655 -1232 43 14 9 255 
-45.0769 -225.385 -1236 47 17 10 255 
-43.0693 -226.114 -1240 39 18 12 255 
-41.2128 -227.755 -1249 31 24 14 255 
-39.0437 -227.755 -1249 28 21 16 255 
-37.1699 -229.579 -1259 26 17 22 255 
-35.3446 -231.949 -1272 27 15 29 255 
-33.3961 -233.773 -1282 28 11 19 255 
-31.2913 -234.684 -1287 26 11 10 255 
-29.0562 -234.684 -1287 24 10 6 255 
-26.9044 -235.414 -1291 22 6 2 255 
-24.6624 -235.414 -1291 20 5 13 255 
-22.5072 -236.326 -1296 22 5 25 255 
-20.2565 -236.326 -1296 25 4 18 255 
-18.0058 -236.326 -1296 21 7 12 255 
-15.8158 -237.237 -1301 18 13 6 255 
-13.5564 -237.237 -1301 15 10 1 255 
-11.3404 -238.149 -1306 13 10 3 255 
-9.07235 -238.149 -1306 16 10 5 255 
-6.83031 -239.061 -1311 19 11 7 255 
-4.53617 -238.149 -1306 34 26 9 255 
-2.27677 -239.061 -1311 49 40 17 255 
0 -239.061 -1311 58 41 26 255 
2.32019 -243.62 -1336 67 44 34 255 
4.67858 -245.625 -1347 70 60 42 255 
15.6943 -235.414 -1291 68 116 54 255 
17.9363 -235.414 -1291 70 122 57 255 
20.1783 -235.414 -1291 73 133 63 255 
22.4204 -235.414 -1291 78 135 69 255 
24.6624 -235.414 -1291 83 140 70 255 
27.0086 -236.326 -1296 86 147 72 255 
29.3722 -237.237 -1301 90 156 82 255 
31.6316 -237.237 -1301 95 151 92 255 
33.891 -237.237 -1301 100 141 73 255 
36.2894 -238.149 -1306 103 98 54 255 
38.5575 -238.149 -1306 107 71 59 255 
40.8256 -238.149 -1306 115 79 65 255 
-254.998 -241.338 -1311 197 184 194 255 
-251.758 -240.417 -1306 193 144 162 255 
-249.49 -240.417 -1306 160 120 130 255 
-246.275 -239.497 -1301 127 92 108 255 
-244.016 -239.497 -1301 96 47 87 255 
-240.827 -238.576 -1296 65 64 84 255 
-238.576 -238.576 -1296 63 60 82 255 
-235.414 -237.656 -1291 62 63 89 255 
-232.449 -236.92 -1287 69 62 96 255 
-229.32 -235.999 -1282 77 68 96 255 
-226.208 -235.079 -1277 78 71 97 255 
-223.99 -235.079 -1277 80 70 100 255 
-220.904 -234.158 -1272 81 68 104 255 
-218.695 -234.158 -1272 83 69 101 255 
-216.486 -234.158 -1272 85 73 98 255 
-213.603 -233.422 -1268 87 73 97 255 
-211.401 -233.422 -1268 85 78 96 255 
-209.199 -233.422 -1268 83 76 98 255 
-206.181 -232.501 -1263 81 78 101 255 
-202.534 -230.845 -1254 80 77 100 255 
-200.356 -230.845 -1254 83 77 99 255 
-198.178 -230.845 -1254 86 77 99 255 
-196 -230.845 -1254 92 79 100 255 
-193.822 -230.845 -1254 99 75 100 255 
-190.881 -229.924 -1249 93 77 100 255 
-188.107 -229.188 -1245 87 74 96 255 
-185.945 -229.188 -1245 84 73 92 255 
-183.045 -228.267 -1240 81 68 93 255 
-180.891 -228.267 -1240 79 67 95 255 
-178.738 -228.267 -1240 78 66 92 255 
-176.015 -227.531 -1236 71 66 89 255 
-173.868 -227.531 -1236 64 63 82 255 
-171.722 -227.531 -1236 64 60 76 255 
-169.575 -227.531 -1236 65 51 68 255 
-166.887 -226.795 -1232 60 43 60 255 
-164.747 -226.795 -1232 56 46 62 255 
-161.948 -225.874 -1227 51 47 64 255 
-159.817 -225.874 -1227 46 43 66 255 
-157.686 -225.874 -1227 50 42 68 255 
-155.555 -225.874 -1227 54 44 68 255 
-153.424 -225.874 -1227 51 45 68 255 
-150.8 -225.138 -1223 49 42 65 255 
-148.676 -225.138 -1223 51 39 63 255 
-146.073 -224.402 -1219 54 39 59 255 
-143.956 -224.402 -1219 56 41 56 255 
-141.839 -224.402 -1219 58 40 60 255 
-139.149 -223.481 -1214 58 39 65 255 
-137.04 -223.481 -1214 58 39 66 255 
-134.932 -223.481 -1214 55 41 67 255 
-132.386 -222.745 -1210 52 43 69 255 
-130.285 -222.745 -1210 53 49 72 255 
-128.183 -222.745 -1210 54 47 73 255 
-125.665 -222.009 -1206 54 51 75 255 
-123.571 -222.009 -1206 54 50 76 255 
-121.073 -221.272 -1202 54 54 77 255 
-119.382 -222.009 -1206 55 53 75 255 
-117.288 -222.009 -1206 57 56 74 255 
-114.811 -221.272 -1202 59 53 72 255 
-112.724 -221.272 -1202 60 51 71 255 
-110.636 -221.272 -1202 61 47 65 255 
-108.097 -220.352 -1197 57 49 60 255 
-106.461 -221.272 -1202 53 35 55 255 
-103.939 -220.352 -1197 47 20 50 255 
-101.861 -220.352 -1197 42 24 42 255 
-99.7819 -220.352 -1197 40 30 35 255 
-97.7031 -220.352 -1197 39 25 33 255 
-95.6243 -220.352 -1197 36 24 31 255 
-93.5455 -220.352 -1197 34 24 28 255 
-91.4668 -220.352 -1197 45 26 25 255 
-89.388 -220.352 -1197 57 23 22 255 
-87.3092 -220.352 -1197 44 22 20 255 
-85.5864 -221.272 -1202 32 24 21 255 
-83.4989 -221.272 -1202 31 27 22 255 
-81.4115 -221.272 -1202 31 24 18 255 
-79.588 -222.009 -1206 30 25 15 255 
-77.4935 -222.009 -1206 30 24 11 255 
-75.3991 -222.009 -1206 28 23 7 255 
-73.5478 -222.745 -1210 26 19 16 255 
-71.4465 -222.745 -1210 36 14 25 255 
-69.3451 -222.745 -1210 47 17 19 255 
-67.2437 -222.745 -1210 37 20 14 255 
-65.3577 -223.481 -1214 28 19 10 255 
-63.2494 -223.481 -1214 19 23 6 255 
-61.1411 -223.481 -1214 10 18 9 255 
-59.0328 -223.481 -1214 20 14 13 255 
-57.1589 -224.402 -1219 31 12 14 255 
-55.0419 -224.402 -1219 31 8 16 255 
-53.0986 -225.138 -1223 32 11 19 255 
-50.9746 -225.138 -1223 37 10 22 255 
-49.2102 -226.795 -1232 42 13 17 255 
-47.2234 -227.531 -1236 49 16 13 255 
-45.2228 -228.267 -1240 56 16 12 255 
-43.243 -229.188 -1245 44 18 12 255 
-41.3778 -230.845 -1254 33 17 13 255 
-39.2 -230.845 -1254 30 17 14 255 
-37.4356 -233.422 -1268 27 15 17 255 
-35.3446 -234.158 -1272 28 11 21 255 
-33.3961 -235.999 -1282 30 10 15 255 
-31.1697 -235.999 -1282 26 9 9 255 
-29.0562 -236.92 -1287 23 8 7 255 
-26.9044 -237.656 -1291 21 7 5 255 
-24.6624 -237.656 -1291 20 6 12 255 
-22.5072 -238.576 -1296 23 4 20 255 
-20.2565 -238.576 -1296 26 4 16 255 
-18.0058 -238.576 -1296 23 7 12 255 
-15.8158 -239.497 -1301 21 8 8 255 
-13.6085 -240.417 -1306 19 7 4 255 
-11.3404 -240.417 -1306 17 10 5 255 
-9.10708 -241.338 -1311 17 10 7 255 
-6.83031 -241.338 -1311 17 22 8 255 
-4.53617 -240.417 -1306 32 43 10 255 
-2.27677 -241.338 -1311 48 53 18 255 
0 -241.338 -1311 55 53 27 255 
2.33061 -247.044 -1342 63 63 35 255 
4.67858 -247.965 -1347 59 82 43 255 
15.6456 -236.92 -1287 66 113 53 255 
17.8807 -236.92 -1287 70 118 57 255 
20.1158 -236.92 -1287 74 127 62 255 
22.4204 -237.656 -1291 79 133 67 255 
24.6624 -237.656 -1291 84 136 71 255 
27.0086 -238.576 -1296 88 139 75 255 
29.2594 -238.576 -1296 93 147 75 255 
31.6316 -239.497 -1301 95 146 75 255 
33.891 -239.497 -1301 97 117 62 255 
36.2894 -240.417 -1306 99 81 50 255 
38.7051 -241.338 -1311 102 78 55 255 
40.9819 -241.338 -1311 112 80 60 255 
44.4465 -247.965 -1347 123 84 58 255 
-252.721 -243.614 -1311 193 155 199 255 
-249.49 -242.685 -1306 168 145 188 255 
-247.221 -242.685 -1306 143 151 137 255 
-244.016 -241.756 -1301 122 100 87 255 
-240.827 -240.827 -1296 101 82 79 255 
-238.576 -240.827 -1296 93 69 71 255 
-235.414 -239.898 -1291 85 57 82 255 
-233.172 -239.898 -1291 78 57 94 255 
-230.214 -239.155 -1287 71 64 94 255 
-227.093 -238.226 -1282 76 65 95 255 
-223.99 -237.296 -1277 81 68 97 255 
-220.904 -236.367 -1272 82 66 100 255 
-218.695 -236.367 -1272 83 64 98 255 
-216.486 -236.367 -1272 83 67 97 255 
-213.603 -235.624 -1268 83 67 98 255 
-211.401 -235.624 -1268 81 72 99 255 
-209.199 -235.624 -1268 80 74 100 255 
-206.181 -234.695 -1263 77 76 101 255 
-203.987 -234.695 -1263 74 78 99 255 
-201.155 -233.952 -1259 78 77 98 255 
-198.968 -233.952 -1259 83 76 99 255 
-196 -233.022 -1254 88 74 101 255 
-193.822 -233.022 -1254 93 71 103 255 
-190.881 -232.093 -1249 89 71 106 255 
