ply
format ascii 1.0
comment VCGLIB generated
element vertex 1241
property float x
property float y
property float z
property uchar red
property uchar green
property uchar blue
property uchar alpha
element face 0
property list uchar int vertex_indices
end_header
32.4826 -74.246 -1336 28 32 11 255 
34.9591 -74.5794 -1342 30 31 12 255 
37.2897 -74.5794 -1342 32 28 14 255 
39.6203 -74.5794 -1342 35 38 25 255 
41.9509 -74.5794 -1342 63 95 37 255 
44.2815 -74.5794 -1342 91 121 52 255 
46.7858 -74.8573 -1347 86 133 67 255 
49.1251 -74.8573 -1347 82 97 51 255 
51.4644 -74.8573 -1347 55 50 36 255 
54.0034 -75.1351 -1352 28 38 33 255 
56.6014 -75.4686 -1358 29 34 30 255 
59.1769 -75.7465 -1363 30 32 23 255 
61.544 -75.7465 -1363 34 26 17 255 
63.9111 -75.7465 -1363 39 26 23 255 
66.2781 -75.7465 -1363 34 24 30 255 
68.897 -76.0243 -1368 30 22 25 255 
71.2728 -76.0243 -1368 33 14 21 255 
73.9716 -76.3578 -1374 36 11 16 255 
76.6356 -76.6356 -1379 20 9 11 255 
79.0305 -76.6356 -1379 5 15 18 255 
81.4254 -76.6356 -1379 23 21 25 255 
84.1849 -76.9691 -1385 41 24 27 255 
86.5902 -76.9691 -1385 37 16 29 255 
88.9955 -76.9691 -1385 34 21 32 255 
91.4008 -76.9691 -1385 40 46 36 255 
93.3997 -76.6356 -1379 47 98 76 255 
95.7945 -76.6356 -1379 72 129 116 255 
97.8334 -76.3578 -1374 97 55 62 255 
99.7819 -76.0243 -1368 72 28 8 255 
102.158 -76.0243 -1368 47 41 26 255 
104.151 -75.7465 -1363 46 49 45 255 
106.128 -75.4686 -1358 46 33 26 255 
110.643 -76.9691 -1385 27 29 7 255 
113.456 -77.2469 -1390 9 15 18 255 
117.288 -78.1917 -1407 12 14 30 255 
119.731 -78.1917 -1407 16 11 45 255 
122.695 -78.5251 -1413 8 5 61 255 
125.149 -78.5251 -1413 1 46 96 255 
127.061 -78.1917 -1407 64 76 132 255 
-243.178 -75.7065 -1321 133 84 145 255 
-240.884 -75.7065 -1321 125 103 158 255 
-237.687 -75.42 -1316 131 126 172 255 
-235.402 -75.42 -1316 137 138 174 255 
-233.116 -75.42 -1316 140 135 177 255 
-229.954 -75.1334 -1311 143 133 178 255 
-227.677 -75.1334 -1311 141 132 179 255 
-225.4 -75.1334 -1311 139 135 177 255 
-222.272 -74.8469 -1306 142 139 176 255 
-220.004 -74.8469 -1306 146 144 174 255 
-217.736 -74.8469 -1306 142 133 172 255 
-214.643 -74.5603 -1301 138 134 169 255 
-212.384 -74.5603 -1301 133 128 166 255 
-209.317 -74.2738 -1296 128 134 165 255 
-207.066 -74.2738 -1296 128 118 164 255 
-204.025 -73.9872 -1291 128 111 164 255 
-201.783 -73.9872 -1291 130 114 164 255 
-199.541 -73.9872 -1291 132 119 165 255 
-197.299 -73.9872 -1291 132 120 167 255 
-195.057 -73.9872 -1291 133 122 168 255 
-192.218 -73.758 -1287 134 129 169 255 
-189.983 -73.758 -1287 135 129 166 255 
-187.748 -73.758 -1287 132 118 164 255 
-184.792 -73.4714 -1282 129 103 166 255 
-182.565 -73.4714 -1282 141 126 168 255 
-179.636 -73.1849 -1277 154 175 209 255 
-177.418 -73.1849 -1277 204 224 250 255 
-174.514 -72.8983 -1272 254 254 252 255 
-172.305 -72.8983 -1272 254 254 254 255 
-170.765 -73.1849 -1277 254 254 254 255 
-167.887 -72.8983 -1272 254 254 254 255 
-165.678 -72.8983 -1272 254 254 254 255 
-163.469 -72.8983 -1272 204 195 254 255 
-161.26 -72.8983 -1272 154 180 221 255 
-158.551 -72.6691 -1268 151 133 188 255 
-156.349 -72.6691 -1268 149 43 172 255 
-154.147 -72.6691 -1268 133 95 157 255 
-151.944 -72.6691 -1268 117 103 162 255 
-149.742 -72.6691 -1268 120 109 168 255 
-147.54 -72.6691 -1268 123 114 166 255 
-145.338 -72.6691 -1268 120 113 164 255 
-143.136 -72.6691 -1268 117 121 147 255 
-140.934 -72.6691 -1268 114 109 130 255 
-138.185 -72.3825 -1263 112 109 138 255 
-135.991 -72.3825 -1263 97 98 146 255 
-133.798 -72.3825 -1263 82 91 113 255 
-131.605 -72.3825 -1263 76 58 81 255 
-129.001 -72.1533 -1259 71 32 72 255 
-126.815 -72.1533 -1259 77 41 63 255 
-124.628 -72.1533 -1259 83 42 91 255 
-122.442 -72.1533 -1259 87 74 119 255 
-120.255 -72.1533 -1259 91 87 118 255 
-118.069 -72.1533 -1259 96 90 118 255 
-115.422 -71.8667 -1254 101 93 117 255 
-113.245 -71.8667 -1254 98 90 117 255 
-111.067 -71.8667 -1254 96 92 114 255 
-108.889 -71.8667 -1254 97 90 112 255 
-106.711 -71.8667 -1254 99 90 111 255 
-104.533 -71.8667 -1254 96 87 110 255 
-102.356 -71.8667 -1254 93 87 113 255 
-100.178 -71.8667 -1254 92 85 117 255 
-98.0001 -71.8667 -1254 91 83 110 255 
-95.8223 -71.8667 -1254 88 84 103 255 
-93.6445 -71.8667 -1254 86 86 99 255 
-91.4668 -71.8667 -1254 82 79 96 255 
-89.289 -71.8667 -1254 78 84 90 255 
-87.1112 -71.8667 -1254 75 72 84 255 
-84.9334 -71.8667 -1254 72 68 77 255 
-82.7556 -71.8667 -1254 68 58 71 255 
-80.5779 -71.8667 -1254 65 51 71 255 
-78.4001 -71.8667 -1254 68 54 71 255 
-76.2223 -71.8667 -1254 72 62 66 255 
-74.0445 -71.8667 -1254 63 65 61 255 
-71.8667 -71.8667 -1254 55 63 43 255 
-69.689 -71.8667 -1254 52 38 25 255 
-67.7804 -72.1533 -1259 50 17 32 255 
-65.5939 -72.1533 -1259 59 45 39 255 
-63.6089 -72.3825 -1263 68 58 48 255 
-61.4155 -72.3825 -1263 85 106 57 255 
-59.2221 -72.3825 -1263 103 147 104 255 
-57.2544 -72.6691 -1268 111 151 151 255 
-55.0523 -72.6691 -1268 119 133 104 255 
-53.2254 -73.1849 -1277 84 94 57 255 
-51.0076 -73.1849 -1277 50 50 37 255 
-48.9809 -73.4714 -1282 55 51 18 255 
-46.9369 -73.758 -1287 61 54 19 255 
-44.8407 -73.9872 -1291 53 48 21 255 
-42.5987 -73.9872 -1291 46 39 19 255 
-40.3567 -73.9872 -1291 41 31 18 255 
-38.2622 -74.2738 -1296 37 21 15 255 
-36.1505 -74.5603 -1301 36 14 12 255 
-34.1516 -75.1334 -1311 35 9 6 255 
-31.7532 -74.8469 -1306 40 8 1 255 
-29.4851 -74.8469 -1306 46 21 65 255 
-27.217 -74.8469 -1306 72 91 130 255 
-24.949 -74.8469 -1306 99 106 106 255 
-22.6809 -74.8469 -1306 87 63 82 255 
-20.3346 -74.5603 -1301 76 43 62 255 
-18.0752 -74.5603 -1301 70 36 43 255 
-15.8158 -74.5603 -1301 65 34 39 255 
-13.5564 -74.5603 -1301 48 33 35 255 
-11.297 -74.5603 -1301 32 21 25 255 
-9.07235 -74.8469 -1306 54 44 16 255 
-6.80426 -74.8469 -1306 76 135 60 255 
-4.53617 -74.8469 -1306 88 148 105 255 
-2.26809 -74.8469 -1306 100 144 87 255 
0 -75.1334 -1311 113 160 69 255 
2.26809 -74.8469 -1306 126 183 78 255 
4.55354 -75.1334 -1311 115 152 88 255 
6.85636 -75.42 -1316 105 115 86 255 
9.17655 -75.7065 -1321 107 152 85 255 
11.4707 -75.7065 -1321 110 145 93 255 
13.7648 -75.7065 -1321 108 137 102 255 
16.1197 -75.9931 -1326 107 136 68 255 
18.4226 -75.9931 -1326 87 107 34 255 
20.7254 -75.9931 -1326 67 82 34 255 
23.0282 -75.9931 -1326 58 35 35 255 
25.4265 -76.2796 -1331 50 21 26 255 
27.8422 -76.5662 -1336 36 22 18 255 
30.1624 -76.5662 -1336 22 21 11 255 
32.4826 -76.5662 -1336 26 26 5 255 
34.9591 -76.91 -1342 31 31 3 255 
37.2897 -76.91 -1342 35 19 2 255 
39.6203 -76.91 -1342 40 14 26 255 
41.9509 -76.91 -1342 71 100 51 255 
44.2815 -76.91 -1342 102 143 49 255 
46.6121 -76.91 -1342 92 120 47 255 
49.1251 -77.1966 -1347 82 88 44 255 
51.4644 -77.1966 -1347 53 51 41 255 
54.0034 -77.4831 -1352 24 36 35 255 
56.6014 -77.827 -1358 26 36 30 255 
59.1769 -78.1135 -1363 28 37 22 255 
61.3182 -77.827 -1358 32 31 14 255 
63.9111 -78.1135 -1363 36 30 13 255 
66.2781 -78.1135 -1363 31 25 13 255 
68.897 -78.4001 -1368 27 25 14 255 
71.2728 -78.4001 -1368 29 13 16 255 
74.2408 -79.0305 -1379 32 11 8 255 
76.6356 -79.0305 -1379 27 11 1 255 
79.0305 -79.0305 -1379 22 16 11 255 
81.4254 -79.0305 -1379 26 17 21 255 
84.1849 -79.3744 -1385 31 30 19 255 
86.5902 -79.3744 -1385 24 15 18 255 
88.9955 -79.3744 -1385 18 14 23 255 
91.4008 -79.3744 -1385 35 52 28 255 
93.3997 -79.0305 -1379 52 84 61 255 
95.7945 -79.0305 -1379 65 75 94 255 
97.8334 -78.7439 -1374 79 30 54 255 
99.7819 -78.4001 -1368 65 36 14 255 
102.158 -78.4001 -1368 51 47 32 255 
104.151 -78.1135 -1363 50 45 50 255 
106.128 -77.827 -1358 49 39 26 255 
109.285 -78.4001 -1368 36 28 2 255 
114.844 -80.6352 -1407 24 17 17 255 
117.288 -80.6352 -1407 24 21 32 255 
119.731 -80.6352 -1407 25 25 19 255 
122.695 -80.979 -1413 21 14 7 255 
124.618 -80.6352 -1407 17 2 26 255 
127.061 -80.6352 -1407 40 39 45 255 
129.045 -80.3486 -1402 64 74 129 255 
131.48 -80.3486 -1402 113 136 213 255 
-245.473 -78.0006 -1321 96 90 169 255 
-242.258 -77.7054 -1316 118 109 158 255 
-239.973 -77.7054 -1316 140 119 165 255 
-237.687 -77.7054 -1316 137 133 172 255 
-235.402 -77.7054 -1316 134 134 173 255 
-233.116 -77.7054 -1316 135 136 175 255 
-229.954 -77.4102 -1311 136 130 175 255 
-227.677 -77.4102 -1311 136 125 176 255 
-224.541 -77.1149 -1306 137 132 174 255 
-222.272 -77.1149 -1306 138 138 172 255 
-220.004 -77.1149 -1306 139 132 170 255 
-216.903 -76.8197 -1301 137 117 168 255 
-214.643 -76.8197 -1301 136 117 164 255 
-211.568 -76.5245 -1296 131 112 161 255 
-209.317 -76.5245 -1296 126 117 158 255 
-206.267 -76.2292 -1291 126 112 155 255 
-204.025 -76.2292 -1291 126 112 158 255 
-201.783 -76.2292 -1291 128 114 161 255 
-199.541 -76.2292 -1291 131 118 164 255 
-197.299 -76.2292 -1291 131 122 167 255 
-194.453 -75.9931 -1287 131 125 168 255 
-192.218 -75.9931 -1287 133 133 170 255 
-189.983 -75.9931 -1287 136 129 169 255 
-187.018 -75.6978 -1282 137 128 169 255 
-184.792 -75.6978 -1282 139 115 167 255 
-182.565 -75.6978 -1282 133 107 166 255 
-179.636 -75.4026 -1277 127 151 209 255 
-177.418 -75.4026 -1277 190 227 252 255 
-175.2 -75.4026 -1277 254 247 253 255 
-172.982 -75.4026 -1277 254 254 254 255 
-170.765 -75.4026 -1277 254 254 254 255 
-167.887 -75.1074 -1272 254 254 254 255 
-165.678 -75.1074 -1272 254 209 228 255 
-163.469 -75.1074 -1272 154 92 203 255 
-161.26 -75.1074 -1272 54 115 182 255 
-158.551 -74.8712 -1268 90 112 161 255 
-156.349 -74.8712 -1268 127 97 160 255 
-153.539 -74.5759 -1263 129 115 160 255 
-151.345 -74.5759 -1263 131 113 153 255 
-149.152 -74.5759 -1263 126 117 147 255 
-146.958 -74.5759 -1263 121 107 146 255 
-144.765 -74.5759 -1263 117 98 146 255 
-142.572 -74.5759 -1263 114 101 137 255 
-140.378 -74.5759 -1263 112 93 129 255 
-138.185 -74.5759 -1263 110 92 124 255 
-135.991 -74.5759 -1263 84 83 119 255 
-133.374 -74.3398 -1259 58 63 89 255 
-131.188 -74.3398 -1259 54 22 59 255 
-129.001 -74.3398 -1259 50 33 62 255 
-126.815 -74.3398 -1259 64 44 65 255 
-124.628 -74.3398 -1259 78 53 91 255 
-122.442 -74.3398 -1259 83 80 117 255 
-120.255 -74.3398 -1259 89 85 116 255 
-118.069 -74.3398 -1259 97 88 116 255 
-115.422 -74.0445 -1254 105 90 116 255 
-113.245 -74.0445 -1254 101 91 116 255 
-111.067 -74.0445 -1254 97 89 115 255 
-108.889 -74.0445 -1254 100 89 114 255 
-106.711 -74.0445 -1254 103 88 112 255 
-104.533 -74.0445 -1254 98 87 110 255 
-102.356 -74.0445 -1254 93 86 110 255 
-100.178 -74.0445 -1254 90 85 110 255 
-98.0001 -74.0445 -1254 88 82 104 255 
-95.8223 -74.0445 -1254 84 82 98 255 
-93.6445 -74.0445 -1254 81 76 94 255 
-91.4668 -74.0445 -1254 77 64 90 255 
-88.933 -73.7493 -1249 73 65 84 255 
-87.1112 -74.0445 -1254 70 59 78 255 
-84.5948 -73.7493 -1249 67 55 75 255 
-82.4257 -73.7493 -1249 66 49 73 255 
-80.2566 -73.7493 -1249 65 52 68 255 
-78.0875 -73.7493 -1249 72 64 63 255 
-76.2223 -74.0445 -1254 79 59 59 255 
-74.0445 -74.0445 -1254 67 59 55 255 
-71.8667 -74.0445 -1254 55 52 41 255 
-69.689 -74.0445 -1254 57 46 28 255 
-67.5112 -74.0445 -1254 59 40 26 255 
-65.3334 -74.0445 -1254 70 47 24 255 
-63.4074 -74.3398 -1259 82 94 46 255 
-61.221 -74.3398 -1259 92 151 68 255 
-59.2221 -74.5759 -1263 103 137 85 255 
-57.0287 -74.5759 -1263 101 124 103 255 
-55.0523 -74.8712 -1268 99 108 67 255 
-53.017 -75.1074 -1272 74 65 32 255 
-51.0076 -75.4026 -1277 50 52 28 255 
-48.7899 -75.4026 -1277 52 50 24 255 
-46.7545 -75.6978 -1282 55 48 20 255 
-44.7018 -75.9931 -1287 48 47 17 255 
-42.5987 -76.2292 -1291 41 36 16 255 
-40.3567 -76.2292 -1291 37 28 16 255 
-38.2622 -76.5245 -1296 34 18 17 255 
-36.1505 -76.8197 -1301 34 13 18 255 
-34.0213 -77.1149 -1306 34 6 21 255 
-31.7532 -77.1149 -1306 46 1 25 255 
-29.4851 -77.1149 -1306 58 56 77 255 
-27.1128 -76.8197 -1301 78 116 130 255 
-24.949 -77.1149 -1306 98 86 94 255 
-22.594 -76.8197 -1301 85 42 59 255 
-20.3346 -76.8197 -1301 73 35 48 255 
-18.0752 -76.8197 -1301 68 34 37 255 
-15.755 -76.5245 -1296 63 39 29 255 
-13.5564 -76.8197 -1301 43 48 22 255 
-11.297 -76.8197 -1301 23 24 18 255 
-9.03761 -76.8197 -1301 41 7 14 255 
-6.77821 -76.8197 -1301 60 106 58 255 
-4.50144 -76.5245 -1296 84 164 103 255 
-2.2594 -76.8197 -1301 108 148 90 255 
0 -77.1149 -1306 111 135 78 255 
2.26809 -77.1149 -1306 114 157 80 255 
4.55354 -77.4102 -1311 109 157 83 255 
6.85636 -77.7054 -1316 104 140 82 255 
9.17655 -78.0006 -1321 103 154 82 255 
11.4707 -78.0006 -1321 102 149 88 255 
13.7648 -78.0006 -1321 108 154 95 255 
16.059 -78.0006 -1321 115 141 70 255 
18.4226 -78.2959 -1326 88 113 46 255 
20.7254 -78.2959 -1326 62 73 32 255 
23.0282 -78.2959 -1326 56 25 19 255 
25.4265 -78.5911 -1331 51 23 17 255 
27.738 -78.5911 -1331 35 19 16 255 
30.1624 -78.8863 -1336 19 21 13 255 
32.4826 -78.8863 -1336 25 23 10 255 
34.9591 -79.2406 -1342 32 17 11 255 
37.2897 -79.2406 -1342 39 4 12 255 
39.6203 -79.2406 -1342 46 63 41 255 
41.9509 -79.2406 -1342 80 150 70 255 
44.2815 -79.2406 -1342 114 140 61 255 
46.6121 -79.2406 -1342 98 120 52 255 
49.1251 -79.5359 -1347 82 81 40 255 
51.4644 -79.5359 -1347 51 31 28 255 
54.0034 -79.8311 -1352 20 33 28 255 
56.6014 -80.1854 -1358 23 39 28 255 
59.1769 -80.4806 -1363 26 35 22 255 
61.544 -80.4806 -1363 30 33 16 255 
63.9111 -80.4806 -1363 34 27 11 255 
66.2781 -80.4806 -1363 29 23 7 255 
68.897 -80.7758 -1368 25 15 7 255 
71.2728 -80.7758 -1368 26 2 8 255 
73.9716 -81.1301 -1374 28 34 29 255 
76.6356 -81.4254 -1379 33 9 51 255 
79.0305 -81.4254 -1379 39 39 31 255 
81.4254 -81.4254 -1379 30 4 11 255 
84.1849 -81.7796 -1385 21 17 10 255 
86.5902 -81.7796 -1385 11 2 9 255 
88.9955 -81.7796 -1385 2 22 22 255 
91.4008 -81.7796 -1385 30 65 35 255 
93.3997 -81.4254 -1379 58 77 57 255 
95.7945 -81.4254 -1379 60 58 80 255 
97.8334 -81.1301 -1374 62 42 48 255 
99.7819 -80.7758 -1368 58 40 17 255 
101.784 -80.4806 -1363 55 45 27 255 
104.151 -80.4806 -1363 53 47 38 255 
106.128 -80.1854 -1358 52 37 23 255 
109.285 -80.7758 -1368 46 27 8 255 
114.436 -82.7834 -1402 40 23 16 255 
116.871 -82.7834 -1402 37 28 25 255 
119.731 -83.0787 -1407 34 25 20 255 
122.174 -83.0787 -1407 34 25 16 255 
124.618 -83.0787 -1407 34 12 27 255 
127.061 -83.0787 -1407 18 7 39 255 
129.045 -82.7834 -1402 2 38 75 255 
131.48 -82.7834 -1402 48 63 111 255 
-245.473 -80.2948 -1321 119 88 156 255 
-242.258 -79.9909 -1316 132 114 171 255 
-239.973 -79.9909 -1316 145 131 172 255 
-236.784 -79.687 -1311 140 131 173 255 
-234.507 -79.687 -1311 136 130 173 255 
-232.231 -79.687 -1311 135 130 174 255 
-229.954 -79.687 -1311 135 128 173 255 
-226.809 -79.383 -1306 136 126 173 255 
-224.541 -79.383 -1306 137 133 171 255 
-221.422 -79.0791 -1301 137 130 169 255 
-219.162 -79.0791 -1301 137 132 167 255 
-216.903 -79.0791 -1301 134 117 165 255 
-213.818 -78.7752 -1296 132 109 161 255 
-210.751 -78.4713 -1291 125 106 157 255 
-208.509 -78.4713 -1291 119 111 152 255 
-206.267 -78.4713 -1291 124 113 147 255 
-204.025 -78.4713 -1291 130 112 153 255 
-201.783 -78.4713 -1291 130 114 159 255 
-198.923 -78.2281 -1287 130 117 163 255 
-196.688 -78.2281 -1287 130 121 168 255 
-194.453 -78.2281 -1287 131 126 169 255 
-192.218 -78.2281 -1287 133 127 171 255 
-189.245 -77.9242 -1282 136 127 172 255 
-187.018 -77.9242 -1282 136 126 174 255 
-184.792 -77.9242 -1282 137 126 169 255 
-182.565 -77.9242 -1282 133 111 164 255 
-179.636 -77.6203 -1277 129 95 209 255 
-176.723 -77.3164 -1272 161 175 254 255 
-174.514 -77.3164 -1272 193 254 254 255 
-172.305 -77.3164 -1272 191 230 254 255 
-170.096 -77.3164 -1272 190 254 254 255 
-167.887 -77.3164 -1272 177 205 254 255 
-165.678 -77.3164 -1272 165 236 203 255 
-162.955 -77.0733 -1268 124 123 152 255 
-160.753 -77.0733 -1268 83 77 143 255 
-158.551 -77.0733 -1268 100 101 135 255 
-155.732 -76.7693 -1263 117 122 149 255 
-153.539 -76.7693 -1263 116 112 164 255 
-151.345 -76.7693 -1263 116 118 145 255 
-149.152 -76.7693 -1263 112 104 126 255 
-146.958 -76.7693 -1263 108 100 127 255 
-144.307 -76.5262 -1259 105 97 129 255 
-142.572 -76.7693 -1263 103 96 129 255 
-139.934 -76.5262 -1259 101 90 129 255 
-137.747 -76.5262 -1259 99 86 111 255 
-135.561 -76.5262 -1259 83 72 93 255 
-133.374 -76.5262 -1259 67 58 65 255 
-131.188 -76.5262 -1259 62 38 38 255 
-129.001 -76.5262 -1259 57 34 52 255 
-126.815 -76.5262 -1259 64 40 67 255 
-124.628 -76.5262 -1259 71 49 91 255 
-122.442 -76.5262 -1259 77 67 115 255 
-120.255 -76.5262 -1259 84 85 114 255 
-118.069 -76.5262 -1259 92 88 114 255 
-115.422 -76.2223 -1254 100 89 115 255 
-113.245 -76.2223 -1254 98 87 116 255 
-111.067 -76.2223 -1254 97 86 116 255 
-108.889 -76.2223 -1254 99 87 116 255 
-106.711 -76.2223 -1254 101 88 113 255 
-104.533 -76.2223 -1254 96 88 110 255 
-102.356 -76.2223 -1254 92 88 106 255 
-100.178 -76.2223 -1254 87 85 103 255 
-98.0001 -76.2223 -1254 83 81 98 255 
-95.8223 -76.2223 -1254 76 78 94 255 
-93.6445 -76.2223 -1254 70 75 89 255 
-91.1021 -75.9184 -1249 70 64 85 255 
-88.933 -75.9184 -1249 70 55 78 255 
-86.7639 -75.9184 -1249 68 51 72 255 
-84.5948 -75.9184 -1249 66 47 73 255 
-82.4257 -75.9184 -1249 63 56 75 255 
-80.2566 -75.9184 -1249 60 47 65 255 
-78.0875 -75.9184 -1249 63 53 56 255 
-75.9184 -75.9184 -1249 67 55 52 255 
-74.0445 -76.2223 -1254 54 44 49 255 
-71.5802 -75.9184 -1249 41 43 40 255 
-69.689 -76.2223 -1254 51 45 32 255 
-67.5112 -76.2223 -1254 61 54 20 255 
-65.3334 -76.2223 -1254 74 85 9 255 
-63.1556 -76.2223 -1254 88 120 44 255 
-60.9778 -76.2223 -1254 93 131 80 255 
-59.0345 -76.5262 -1259 99 127 68 255 
-57.0287 -76.7693 -1263 85 115 56 255 
-55.0523 -77.0733 -1268 72 113 32 255 
-53.017 -77.3164 -1272 62 70 8 255 
-51.0076 -77.6203 -1277 53 45 19 255 
-48.7899 -77.6203 -1277 53 46 31 255 
-46.7545 -77.9242 -1282 53 44 22 255 
-44.7018 -78.2281 -1287 45 39 14 255 
-42.5987 -78.4713 -1291 38 34 14 255 
-40.3567 -78.4713 -1291 30 24 14 255 
-38.2622 -78.7752 -1296 23 14 19 255 
-36.1505 -79.0791 -1301 24 10 25 255 
-34.0213 -79.383 -1306 25 4 37 255 
-31.6316 -79.0791 -1301 48 35 50 255 
-29.3722 -79.0791 -1301 72 88 90 255 
-27.0086 -78.7752 -1296 81 90 130 255 
-24.7579 -78.7752 -1296 90 80 83 255 
-22.5072 -78.7752 -1296 74 39 37 255 
-20.2565 -78.7752 -1296 59 21 34 255 
-18.0058 -78.7752 -1296 60 30 31 255 
-15.755 -78.7752 -1296 61 40 20 255 
-13.5043 -78.7752 -1296 48 35 9 255 
-11.2536 -78.7752 -1296 36 21 11 255 
-9.03761 -79.0791 -1301 44 42 13 255 
-6.77821 -79.0791 -1301 52 120 57 255 
-4.50144 -78.7752 -1296 68 134 101 255 
-2.2594 -79.0791 -1301 84 152 94 255 
0 -79.0791 -1301 96 141 88 255 
2.2594 -79.0791 -1301 108 155 83 255 
4.53617 -79.383 -1306 101 131 78 255 
6.83031 -79.687 -1311 95 137 79 255 
9.14181 -79.9909 -1316 106 156 80 255 
11.4707 -80.2948 -1321 118 143 84 255 
13.7648 -80.2948 -1321 118 153 89 255 
16.059 -80.2948 -1321 119 162 73 255 
18.4226 -80.5987 -1326 94 114 58 255 
20.7254 -80.5987 -1326 70 72 31 255 
23.0282 -80.5987 -1326 58 41 4 255 
25.4265 -80.9026 -1331 46 29 9 255 
27.738 -80.9026 -1331 37 22 14 255 
30.1624 -81.2065 -1336 29 22 14 255 
32.4826 -81.2065 -1336 33 18 15 255 
34.9591 -81.5712 -1342 37 13 18 255 
37.2897 -81.5712 -1342 47 32 22 255 
39.6203 -81.5712 -1342 58 86 55 255 
41.9509 -81.5712 -1342 76 128 89 255 
44.2815 -81.5712 -1342 94 147 73 255 
46.6121 -81.5712 -1342 82 116 58 255 
48.9427 -81.5712 -1342 70 86 36 255 
51.4644 -81.8751 -1347 48 40 15 255 
54.0034 -82.1791 -1352 26 26 20 255 
56.3514 -82.1791 -1352 22 31 26 255 
58.9598 -82.5438 -1358 18 31 22 255 
61.3182 -82.5438 -1358 29 28 18 255 
63.9111 -82.8477 -1363 41 24 10 255 
66.2781 -82.8477 -1363 40 15 2 255 
68.897 -83.1516 -1368 40 12 1 255 
71.2728 -83.1516 -1368 68 69 1 255 
73.9716 -83.5163 -1374 97 117 51 255 
76.6356 -83.8202 -1379 101 96 101 255 
79.0305 -83.8202 -1379 106 129 51 255 
81.4254 -83.8202 -1379 91 78 1 255 
83.8202 -83.8202 -1379 77 34 1 255 
86.5902 -84.1849 -1385 39 11 1 255 
88.9955 -84.1849 -1385 1 8 22 255 
91.0048 -83.8202 -1379 45 83 43 255 
93.3997 -83.8202 -1379 89 103 55 255 
95.4472 -83.5163 -1374 67 62 67 255 
97.4062 -83.1516 -1368 46 42 44 255 
99.7819 -83.1516 -1368 52 44 21 255 
101.784 -82.8477 -1363 59 47 24 255 
104.151 -82.8477 -1363 54 43 27 255 
106.128 -82.5438 -1358 50 35 20 255 
108.886 -82.8477 -1363 42 25 14 255 
114.436 -85.2182 -1402 35 22 16 255 
116.871 -85.2182 -1402 32 24 19 255 
119.306 -85.2182 -1402 30 23 22 255 
122.174 -85.5221 -1407 33 22 26 255 
124.618 -85.5221 -1407 36 16 30 255 
126.61 -85.2182 -1402 30 15 34 255 
129.045 -85.2182 -1402 25 10 21 255 
130.917 -84.8535 -1396 39 26 9 255 
133.341 -84.8535 -1396 53 8 97 255 
-246.829 -82.2763 -1316 119 91 157 255 
-244.544 -82.2763 -1316 142 111 166 255 
-242.258 -82.2763 -1316 146 130 175 255 
-239.973 -82.2763 -1316 151 131 174 255 
-236.784 -81.9637 -1311 145 131 173 255 
-234.507 -81.9637 -1311 139 128 172 255 
-231.345 -81.6511 -1306 137 127 171 255 
-229.077 -81.6511 -1306 135 123 168 255 
-226.809 -81.6511 -1306 136 119 165 255 
-223.681 -81.3385 -1301 137 123 166 255 
-221.422 -81.3385 -1301 136 119 167 255 
-218.32 -81.0259 -1296 135 120 164 255 
-216.069 -81.0259 -1296 132 114 162 255 
-213.818 -81.0259 -1296 129 108 159 255 
-210.751 -80.7133 -1291 121 95 156 255 
-208.509 -80.7133 -1291 113 109 153 255 
-206.267 -80.7133 -1291 123 120 150 255 
-204.025 -80.7133 -1291 134 115 154 255 
-201.158 -80.4632 -1287 131 115 158 255 
-198.923 -80.4632 -1287 129 117 163 255 
-196.688 -80.4632 -1287 130 122 168 255 
-194.453 -80.4632 -1287 132 125 171 255 
-192.218 -80.4632 -1287 134 126 175 255 
-189.245 -80.1506 -1282 137 127 174 255 
-187.018 -80.1506 -1282 136 126 173 255 
-184.071 -79.838 -1277 136 124 171 255 
-181.141 -79.5254 -1272 134 118 169 255 
-178.932 -79.5254 -1272 132 114 185 255 
-176.723 -79.5254 -1272 132 126 201 255 
-173.965 -79.2754 -1268 133 154 201 255 
-171.763 -79.2754 -1268 129 160 201 255 
-170.096 -79.5254 -1272 126 124 198 255 
-167.359 -79.2754 -1268 101 77 195 255 
-165.157 -79.2754 -1268 77 124 171 255 
-162.955 -79.2754 -1268 95 91 148 255 
-160.753 -79.2754 -1268 113 92 143 255 
-157.926 -78.9628 -1263 110 97 138 255 
-155.732 -78.9628 -1263 108 102 141 255 
-153.539 -78.9628 -1263 104 95 144 255 
-151.345 -78.9628 -1263 101 94 132 255 
-148.68 -78.7127 -1259 98 82 120 255 
-146.493 -78.7127 -1259 96 85 122 255 
-144.307 -78.7127 -1259 94 95 125 255 
-142.12 -78.7127 -1259 93 91 122 255 
-139.934 -78.7127 -1259 91 86 120 255 
-137.747 -78.7127 -1259 89 79 106 255 
-135.561 -78.7127 -1259 83 64 93 255 
-132.845 -78.4001 -1254 77 57 74 255 
-130.667 -78.4001 -1254 71 41 56 255 
-128.489 -78.4001 -1254 65 40 62 255 
-126.311 -78.4001 -1254 65 37 69 255 
-124.133 -78.4001 -1254 65 45 85 255 
-122.442 -78.7127 -1259 72 55 101 255 
-120.255 -78.7127 -1259 80 79 109 255 
-117.6 -78.4001 -1254 87 90 118 255 
-115.422 -78.4001 -1254 95 88 119 255 
-113.245 -78.4001 -1254 96 86 120 255 
-111.067 -78.4001 -1254 98 86 120 255 
-108.889 -78.4001 -1254 98 87 120 255 
-106.286 -78.0875 -1249 99 87 117 255 
-104.117 -78.0875 -1249 95 90 114 255 
-101.948 -78.0875 -1249 92 91 110 255 
-99.7784 -78.0875 -1249 85 90 106 255 
-97.6093 -78.0875 -1249 79 83 99 255 
-95.4403 -78.0875 -1249 69 76 92 255 
-93.2712 -78.0875 -1249 60 71 85 255 
-91.1021 -78.0875 -1249 64 65 78 255 
-88.933 -78.0875 -1249 68 48 75 255 
-86.7639 -78.0875 -1249 67 43 72 255 
-84.5948 -78.0875 -1249 66 57 78 255 
-82.4257 -78.0875 -1249 60 81 84 255 
-80.2566 -78.0875 -1249 55 59 61 255 
-78.0875 -78.0875 -1249 55 49 38 255 
-75.9184 -78.0875 -1249 56 39 40 255 
-74.0445 -78.4001 -1254 41 22 43 255 
-71.5802 -78.0875 -1249 27 34 37 255 
-69.4111 -78.0875 -1249 45 38 31 255 
-67.5112 -78.4001 -1254 64 75 37 255 
-65.0729 -78.0875 -1249 79 119 43 255 
-63.1556 -78.4001 -1254 94 125 54 255 
-60.9778 -78.4001 -1254 94 128 66 255 
-58.8001 -78.4001 -1254 95 113 61 255 
-56.848 -78.7127 -1259 70 96 56 255 
-55.0523 -79.2754 -1268 46 80 36 255 
-53.017 -79.5254 -1272 51 59 17 255 
-50.8079 -79.5254 -1272 56 47 21 255 
-48.7899 -79.838 -1277 54 46 26 255 
-46.7545 -80.1506 -1282 52 37 19 255 
-44.7018 -80.4632 -1287 44 34 13 255 
-42.5987 -80.7133 -1291 36 26 14 255 
-40.3567 -80.7133 -1291 24 20 15 255 
-38.1146 -80.7133 -1291 12 16 14 255 
-36.0115 -81.0259 -1296 14 10 14 255 
-33.891 -81.3385 -1301 17 15 37 255 
-31.6316 -81.3385 -1301 51 49 60 255 
-29.2594 -81.0259 -1296 86 76 92 255 
-26.9044 -80.7133 -1291 84 79 125 255 
-24.6624 -80.7133 -1291 83 57 75 255 
-22.4204 -80.7133 -1291 64 14 25 255 
-20.1783 -80.7133 -1291 46 20 26 255 
-17.9363 -80.7133 -1291 53 28 28 255 
-15.6943 -80.7133 -1291 60 34 19 255 
-13.4522 -80.7133 -1291 55 34 11 255 
-11.2102 -80.7133 -1291 50 28 13 255 
-9.00288 -81.0259 -1296 47 24 16 255 
-6.75216 -81.0259 -1296 44 68 43 255 
-4.50144 -81.0259 -1296 52 102 70 255 
-2.2594 -81.3385 -1301 60 100 75 255 
0 -81.3385 -1301 81 124 80 255 
2.2594 -81.3385 -1301 103 112 66 255 
4.53617 -81.6511 -1306 95 76 52 255 
6.83031 -81.9637 -1311 87 135 80 255 
9.14181 -82.2763 -1316 111 190 108 255 
11.4273 -82.2763 -1316 135 163 102 255 
13.7127 -82.2763 -1316 129 156 97 255 
16.059 -82.5889 -1321 123 152 73 255 
18.3531 -82.5889 -1321 101 112 49 255 
20.6472 -82.5889 -1321 79 77 36 255 
23.0282 -82.9015 -1326 60 39 23 255 
25.331 -82.9015 -1326 41 28 20 255 
27.738 -83.2141 -1331 40 22 18 255 
30.0495 -83.2141 -1331 39 22 20 255 
32.4826 -83.5267 -1336 41 16 23 255 
34.9591 -83.9018 -1342 43 15 30 255 
37.2897 -83.9018 -1342 56 29 38 255 
39.6203 -83.9018 -1342 70 96 55 255 
41.9509 -83.9018 -1342 72 132 72 255 
44.2815 -83.9018 -1342 74 128 59 255 
46.6121 -83.9018 -1342 66 114 46 255 
48.9427 -83.9018 -1342 58 67 30 255 
51.4644 -84.2144 -1347 45 19 15 255 
54.0034 -84.527 -1352 32 22 18 255 
56.6014 -84.9022 -1358 21 29 21 255 
59.1769 -85.2148 -1363 11 27 21 255 
61.544 -85.2148 -1363 30 28 21 255 
63.9111 -85.2148 -1363 49 19 12 255 
66.2781 -85.2148 -1363 52 4 3 255 
68.897 -85.5274 -1368 55 58 30 255 
71.2728 -85.5274 -1368 111 149 57 255 
73.9716 -85.9025 -1374 167 125 71 255 
76.3578 -85.9025 -1374 170 130 86 255 
79.0305 -86.2151 -1379 173 127 80 255 
81.4254 -86.2151 -1379 153 148 74 255 
83.8202 -86.2151 -1379 134 71 37 255 
86.5902 -86.5902 -1385 67 1 1 255 
88.9955 -86.5902 -1385 1 55 49 255 
91.0048 -86.2151 -1379 60 158 98 255 
93.3997 -86.2151 -1379 120 119 76 255 
95.4472 -85.9025 -1374 75 49 55 255 
97.4062 -85.5274 -1368 30 39 43 255 
99.4172 -85.2148 -1363 47 48 31 255 
101.784 -85.2148 -1363 64 49 29 255 
103.769 -84.9022 -1358 56 44 28 255 
106.128 -84.9022 -1358 49 30 24 255 
108.886 -85.2148 -1363 40 19 20 255 
114.436 -87.653 -1402 31 22 21 255 
116.871 -87.653 -1402 28 26 22 255 
119.306 -87.653 -1402 26 22 24 255 
121.74 -87.653 -1402 32 25 26 255 
124.175 -87.653 -1402 39 23 30 255 
126.61 -87.653 -1402 44 29 35 255 
129.045 -87.653 -1402 49 26 32 255 
130.917 -87.2779 -1396 30 25 29 255 
133.341 -87.2779 -1396 12 35 64 255 
-249.114 -84.5618 -1316 107 2 165 255 
-246.829 -84.5618 -1316 123 91 174 255 
-244.544 -84.5618 -1316 140 137 176 255 
-241.338 -84.2405 -1311 142 132 179 255 
-239.061 -84.2405 -1311 145 134 176 255 
-236.784 -84.2405 -1311 141 128 173 255 
-233.613 -83.9192 -1306 137 125 170 255 
-231.345 -83.9192 -1306 136 122 168 255 
-229.077 -83.9192 -1306 136 121 163 255 
-226.809 -83.9192 -1306 136 120 158 255 
-223.681 -83.5979 -1301 136 121 162 255 
-220.571 -83.2766 -1296 134 121 166 255 
-218.32 -83.2766 -1296 133 116 162 255 
-216.069 -83.2766 -1296 130 114 159 255 
-213.818 -83.2766 -1296 128 115 157 255 
-210.751 -82.9554 -1291 122 108 155 255 
-208.509 -82.9554 -1291 117 111 154 255 
-206.267 -82.9554 -1291 122 114 154 255 
-203.393 -82.6983 -1287 128 115 156 255 
-201.158 -82.6983 -1287 127 114 158 255 
-198.923 -82.6983 -1287 127 117 163 255 
-196.688 -82.6983 -1287 129 121 169 255 
-194.453 -82.6983 -1287 131 126 174 255 
-191.471 -82.377 -1282 136 127 180 255 
-189.245 -82.377 -1282 141 130 176 255 
-186.289 -82.0558 -1277 135 129 172 255 
-184.071 -82.0558 -1277 130 128 173 255 
-181.141 -81.7345 -1272 125 118 174 255 
-178.932 -81.7345 -1272 121 118 161 255 
-176.723 -81.7345 -1272 120 99 149 255 
-174.514 -81.7345 -1272 120 78 148 255 
-171.763 -81.4775 -1268 118 87 148 255 
-169.561 -81.4775 -1268 116 7 142 255 
-167.359 -81.4775 -1268 104 69 136 255 
-165.157 -81.4775 -1268 92 92 140 255 
-162.955 -81.4775 -1268 101 94 144 255 
-160.753 -81.4775 -1268 110 104 142 255 
-157.926 -81.1562 -1263 107 97 141 255 
-155.732 -81.1562 -1263 104 95 132 255 
-153.052 -80.8991 -1259 99 89 124 255 
-150.866 -80.8991 -1259 94 83 119 255 
-148.68 -80.8991 -1259 91 71 115 255 
-146.493 -80.8991 -1259 89 67 118 255 
-144.307 -80.8991 -1259 90 79 121 255 
-142.12 -80.8991 -1259 91 89 116 255 
-139.378 -80.5779 -1254 90 84 112 255 
-137.2 -80.5779 -1254 89 81 103 255 
-135.022 -80.5779 -1254 83 71 94 255 
-132.845 -80.5779 -1254 77 66 84 255 
-130.667 -80.5779 -1254 71 53 74 255 
-128.489 -80.5779 -1254 65 48 72 255 
-126.311 -80.5779 -1254 55 43 71 255 
-124.133 -80.5779 -1254 45 42 79 255 
-121.956 -80.5779 -1254 60 58 88 255 
-119.778 -80.5779 -1254 75 88 105 255 
-117.6 -80.5779 -1254 85 88 123 255 
-115.422 -80.5779 -1254 95 87 123 255 
-113.245 -80.5779 -1254 97 87 124 255 
-111.067 -80.5779 -1254 99 88 124 255 
-108.889 -80.5779 -1254 102 88 124 255 
-106.286 -80.2566 -1249 106 86 121 255 
-104.117 -80.2566 -1249 99 92 118 255 
-101.948 -80.2566 -1249 92 99 113 255 
-99.7784 -80.2566 -1249 82 89 109 255 
-97.6093 -80.2566 -1249 72 88 99 255 
-95.4403 -80.2566 -1249 53 66 90 255 
-93.2712 -80.2566 -1249 34 70 81 255 
-91.1021 -80.2566 -1249 47 53 72 255 
-88.933 -80.2566 -1249 61 32 72 255 
-86.7639 -80.2566 -1249 68 47 72 255 
-84.5948 -80.2566 -1249 75 60 83 255 
-82.4257 -80.2566 -1249 64 62 94 255 
-80.2566 -80.2566 -1249 54 59 57 255 
-78.0875 -80.2566 -1249 53 40 20 255 
-75.9184 -80.2566 -1249 53 33 28 255 
-73.7493 -80.2566 -1249 48 30 37 255 
-71.5802 -80.2566 -1249 44 36 34 255 
-69.4111 -80.2566 -1249 60 66 31 255 
-67.242 -80.2566 -1249 77 93 54 255 
-65.0729 -80.2566 -1249 83 115 78 255 
-63.1556 -80.5779 -1254 90 135 65 255 
-60.9778 -80.5779 -1254 87 118 53 255 
-58.8001 -80.5779 -1254 84 103 54 255 
-56.848 -80.8991 -1259 69 78 56 255 
-55.0523 -81.4775 -1268 54 55 41 255 
-53.017 -81.7345 -1272 55 46 27 255 
-50.8079 -81.7345 -1272 56 41 24 255 
-48.7899 -82.0558 -1277 52 34 21 255 
-46.5722 -82.0558 -1277 48 26 17 255 
-44.7018 -82.6983 -1287 42 22 13 255 
-42.4667 -82.6983 -1287 37 17 14 255 
-40.3567 -82.9554 -1291 29 19 16 255 
-38.1146 -82.9554 -1291 21 21 10 255 
-35.8726 -82.9554 -1291 17 9 4 255 
-33.7608 -83.2766 -1296 14 1 37 255 
-31.5101 -83.2766 -1296 52 44 71 255 
-29.1465 -82.9554 -1291 91 88 96 255 
-26.8211 -82.6983 -1287 87 84 121 255 
-24.586 -82.6983 -1287 84 56 67 255 
-22.3509 -82.6983 -1287 74 34 13 255 
-20.1158 -82.6983 -1287 65 20 19 255 
-17.8807 -82.6983 -1287 64 24 26 255 
-15.6456 -82.6983 -1287 64 35 20 255 
-13.4522 -82.9554 -1291 59 30 14 255 
-11.2102 -82.9554 -1291 55 34 17 255 
-9.00288 -83.2766 -1296 53 29 20 255 
-6.75216 -83.2766 -1296 51 26 29 255 
-4.50144 -83.2766 -1296 56 44 39 255 
-2.25072 -83.2766 -1296 61 25 55 255 
0 -83.5979 -1301 73 65 72 255 
2.2594 -83.5979 -1301 86 94 49 255 
4.53617 -83.9192 -1306 81 96 27 255 
6.80426 -83.9192 -1306 76 139 81 255 
9.10708 -84.2405 -1311 110 167 136 255 
11.4273 -84.5618 -1316 145 165 121 255 
13.7127 -84.5618 -1316 135 170 106 255 
16.059 -84.8831 -1321 125 179 73 255 
18.3531 -84.8831 -1321 95 117 41 255 
20.6472 -84.8831 -1321 65 88 41 255 
23.0282 -85.2043 -1326 55 48 42 255 
25.331 -85.2043 -1326 45 26 32 255 
27.738 -85.5256 -1331 42 25 23 255 
30.0495 -85.5256 -1331 40 29 27 255 
32.361 -85.5256 -1331 43 13 31 255 
34.8028 -85.8469 -1336 46 3 43 255 
37.123 -85.8469 -1336 67 74 55 255 
39.4432 -85.8469 -1336 89 138 55 255 
41.7634 -85.8469 -1336 77 126 55 255 
44.0835 -85.8469 -1336 66 122 44 255 
46.6121 -86.2324 -1342 60 87 34 255 
48.9427 -86.2324 -1342 54 51 25 255 
51.4644 -86.5537 -1347 44 25 16 255 
53.8037 -86.5537 -1347 35 15 16 255 
56.3514 -86.875 -1352 28 21 16 255 
58.9598 -87.2606 -1358 22 22 20 255 
61.3182 -87.2606 -1358 30 24 25 255 
63.9111 -87.5818 -1363 39 22 14 255 
66.2781 -87.5818 -1363 35 24 4 255 
68.6452 -87.5818 -1363 32 68 59 255 
71.2728 -87.9031 -1368 96 108 114 255 
73.9716 -88.2887 -1374 161 106 92 255 
76.3578 -88.2887 -1374 170 112 71 255 
78.7439 -88.2887 -1374 180 101 109 255 
81.4254 -88.6099 -1379 176 134 148 255 
83.8202 -88.6099 -1379 172 104 74 255 
86.5902 -88.9955 -1385 115 58 1 255 
88.6099 -88.6099 -1379 59 55 77 255 
91.0048 -88.6099 -1379 87 141 154 255 
93.061 -88.2887 -1374 115 169 98 255 
95.4472 -88.2887 -1374 76 71 43 255 
97.0501 -87.5818 -1363 38 21 42 255 
99.4172 -87.5818 -1363 55 43 42 255 
101.411 -87.2606 -1358 72 58 35 255 
104.151 -87.5818 -1363 59 41 29 255 
106.518 -87.5818 -1363 47 25 27 255 
109.285 -87.9031 -1368 39 23 26 255 
113.048 -88.9955 -1385 31 24 26 255 
115.87 -89.3168 -1390 29 20 26 255 
118.795 -89.7023 -1396 27 18 26 255 
121.219 -89.7023 -1396 34 20 27 255 
124.175 -90.0878 -1402 42 24 31 255 
126.068 -89.7023 -1396 47 31 36 255 
128.492 -89.7023 -1396 52 42 43 255 
130.354 -89.3168 -1390 44 38 50 255 
132.768 -89.3168 -1390 36 37 33 255 
135.182 -89.3168 -1390 37 45 16 255 
138.19 -89.7023 -1396 38 34 60 255 
-251.4 -86.8472 -1316 146 108 159 255 
-249.114 -86.8472 -1316 119 91 166 255 
-245.891 -86.5173 -1311 128 135 173 255 
-243.614 -86.5173 -1311 138 132 174 255 
-241.338 -86.5173 -1311 139 131 175 255 
-239.061 -86.5173 -1311 140 127 172 255 
-236.784 -86.5173 -1311 138 125 170 255 
-233.613 -86.1873 -1306 136 122 169 255 
-231.345 -86.1873 -1306 137 115 168 255 
-229.077 -86.1873 -1306 138 119 165 255 
-225.94 -85.8573 -1301 136 121 162 255 
-223.681 -85.8573 -1301 135 123 165 255 
-220.571 -85.5274 -1296 133 129 168 255 
-218.32 -85.5274 -1296 131 119 163 255 
-215.236 -85.1974 -1291 129 114 159 255 
-212.993 -85.1974 -1291 128 114 156 255 
-210.751 -85.1974 -1291 124 113 154 255 
-207.863 -84.9334 -1287 121 112 154 255 
-205.628 -84.9334 -1287 122 111 154 255 
-203.393 -84.9334 -1287 123 111 153 255 
-201.158 -84.9334 -1287 124 111 152 255 
-198.923 -84.9334 -1287 126 115 161 255 
-196.688 -84.9334 -1287 128 120 170 255 
-193.697 -84.6035 -1282 130 123 173 255 
-191.471 -84.6035 -1282 138 129 177 255 
-188.506 -84.2735 -1277 146 130 173 255 
-186.289 -84.2735 -1277 135 133 170 255 
-183.35 -83.9435 -1272 124 122 159 255 
-181.141 -83.9435 -1272 117 111 149 255 
-178.932 -83.9435 -1272 111 97 147 255 
-176.167 -83.6795 -1268 109 76 146 255 
-173.965 -83.6795 -1268 108 93 143 255 
-171.763 -83.6795 -1268 107 105 141 255 
-169.561 -83.6795 -1268 107 82 136 255 
-167.359 -83.6795 -1268 107 103 132 255 
-165.157 -83.6795 -1268 108 96 132 255 
-162.955 -83.6795 -1268 108 92 133 255 
-160.753 -83.6795 -1268 108 95 132 255 
-157.926 -83.3496 -1263 104 93 132 255 
-155.732 -83.3496 -1263 101 90 124 255 
-153.052 -83.0856 -1259 94 85 116 255 
-150.866 -83.0856 -1259 88 73 112 255 
-148.68 -83.0856 -1259 85 55 108 255 
-146.493 -83.0856 -1259 82 60 109 255 
-143.733 -82.7556 -1254 85 68 110 255 
-141.556 -82.7556 -1254 89 78 109 255 
-139.378 -82.7556 -1254 89 80 109 255 
-137.2 -82.7556 -1254 90 80 101 255 
-135.022 -82.7556 -1254 83 77 94 255 
-132.845 -82.7556 -1254 77 65 83 255 
-130.667 -82.7556 -1254 71 60 73 255 
-128.489 -82.7556 -1254 65 51 72 255 
-126.311 -82.7556 -1254 45 46 71 255 
-124.133 -82.7556 -1254 26 45 72 255 
-121.956 -82.7556 -1254 48 48 74 255 
-119.778 -82.7556 -1254 71 69 96 255 
-117.6 -82.7556 -1254 83 90 119 255 
-115.422 -82.7556 -1254 95 87 123 255 
-113.245 -82.7556 -1254 97 91 128 255 
-111.067 -82.7556 -1254 100 92 127 255 
-108.455 -82.4257 -1249 106 91 126 255 
-106.286 -82.4257 -1249 113 92 123 255 
-104.117 -82.4257 -1249 102 97 120 255 
-101.948 -82.4257 -1249 92 90 100 255 
-99.7784 -82.4257 -1249 78 83 80 255 
-97.6093 -82.4257 -1249 65 52 63 255 
-95.4403 -82.4257 -1249 37 30 47 255 
-93.2712 -82.4257 -1249 9 41 58 255 
-91.1021 -82.4257 -1249 31 45 69 255 
-88.933 -82.4257 -1249 54 48 67 255 
-86.7639 -82.4257 -1249 69 55 65 255 
-84.5948 -82.4257 -1249 84 52 71 255 
-82.4257 -82.4257 -1249 68 51 78 255 
-80.2566 -82.4257 -1249 53 38 45 255 
-78.0875 -82.4257 -1249 52 19 12 255 
-75.9184 -82.4257 -1249 51 30 27 255 
-73.7493 -82.4257 -1249 56 33 43 255 
-71.5802 -82.4257 -1249 61 58 40 255 
-69.4111 -82.4257 -1249 75 98 38 255 
-67.242 -82.4257 -1249 90 106 54 255 
-65.0729 -82.4257 -1249 88 113 70 255 
-63.1556 -82.7556 -1254 87 115 59 255 
-60.9778 -82.7556 -1254 80 106 49 255 
-58.8001 -82.7556 -1254 74 81 46 255 
-56.848 -83.0856 -1259 68 58 44 255 
-54.8353 -83.3496 -1263 62 45 35 255 
-52.8502 -83.6795 -1268 59 29 27 255 
-50.8079 -83.9435 -1272 56 30 23 255 
-48.5989 -83.9435 -1272 50 27 19 255 
-46.5722 -84.2735 -1277 44 21 16 255 
-44.5281 -84.6035 -1282 41 14 13 255 
-42.4667 -84.9334 -1287 38 16 14 255 
-40.2316 -84.9334 -1287 34 18 16 255 
-37.9965 -84.9334 -1287 31 14 10 255 
-35.8726 -85.1974 -1291 21 4 4 255 
-33.6306 -85.1974 -1291 12 11 38 255 
-31.3885 -85.1974 -1291 54 40 73 255 
-29.0562 -84.9334 -1287 96 82 110 255 
-26.8211 -84.9334 -1287 90 115 148 255 
-24.586 -84.9334 -1287 85 84 97 255 
-22.2641 -84.6035 -1282 84 49 46 255 
-20.0377 -84.6035 -1282 84 34 30 255 
-17.8807 -84.9334 -1287 76 14 15 255 
-15.6456 -84.9334 -1287 68 23 12 255 
-13.4522 -85.1974 -1291 64 21 9 255 
-11.2102 -85.1974 -1291 60 31 16 255 
-8.96815 -85.1974 -1291 59 35 24 255 
-6.75216 -85.5274 -1296 58 29 30 255 
-4.50144 -85.5274 -1296 60 26 36 255 
-2.25072 -85.5274 -1296 62 24 38 255 
0 -85.5274 -1296 65 19 40 255 
2.2594 -85.8573 -1301 69 58 35 255 
4.53617 -86.1873 -1306 67 79 30 255 
6.80426 -86.1873 -1306 65 123 70 255 
9.10708 -86.5173 -1311 110 175 110 255 
11.4273 -86.8472 -1316 155 172 109 255 
13.7127 -86.8472 -1316 141 181 108 255 
15.9982 -86.8472 -1316 128 147 73 255 
18.3531 -87.1772 -1321 90 91 39 255 
20.6472 -87.1772 -1321 52 76 38 255 
23.0282 -87.5072 -1326 51 42 37 255 
25.331 -87.5072 -1326 50 28 25 255 
27.738 -87.8371 -1331 45 25 14 255 
30.0495 -87.8371 -1331 41 19 19 255 
32.361 -87.8371 -1331 45 5 24 255 
34.8028 -88.1671 -1336 49 54 46 255 
37.123 -88.1671 -1336 78 128 69 255 
39.4432 -88.1671 -1336 108 124 63 255 
41.7634 -88.1671 -1336 83 113 57 255 
44.0835 -88.1671 -1336 58 98 42 255 
46.6121 -88.563 -1342 54 63 27 255 
48.9427 -88.563 -1342 51 39 18 255 
51.4644 -88.893 -1347 44 17 9 255 
53.8037 -88.893 -1347 38 17 13 255 
56.3514 -89.223 -1352 35 22 18 255 
58.9598 -89.6189 -1358 33 23 26 255 
61.3182 -89.6189 -1358 31 26 34 255 
63.9111 -89.9489 -1363 30 17 20 255 
66.2781 -89.9489 -1363 19 3 6 255 
68.6452 -89.9489 -1363 9 45 55 255 
71.2728 -90.2789 -1368 82 110 104 255 
73.9716 -90.6748 -1374 155 108 120 255 
76.3578 -90.6748 -1374 171 115 137 255 
78.7439 -90.6748 -1374 187 156 146 255 
81.4254 -91.0048 -1379 198 186 156 255 
83.8202 -91.0048 -1379 210 146 105 255 
86.2151 -91.0048 -1379 163 76 54 255 
88.6099 -91.0048 -1379 117 119 103 255 
91.0048 -91.0048 -1379 114 182 152 255 
93.061 -90.6748 -1374 111 120 93 255 
94.6831 -89.9489 -1363 78 47 34 255 
97.0501 -89.9489 -1363 46 39 37 255 
99.4172 -89.9489 -1363 63 49 40 255 
101.784 -89.9489 -1363 81 46 32 255 
104.151 -89.9489 -1363 63 41 25 255 
106.518 -89.9489 -1363 46 28 23 255 
109.285 -90.2789 -1368 39 25 21 255 
112.15 -90.6748 -1374 32 19 23 255 
115.87 -91.7307 -1390 30 15 25 255 
118.284 -91.7307 -1390 29 13 26 255 
121.219 -92.1267 -1396 37 14 28 255 
123.644 -92.1267 -1396 45 22 32 255 
125.526 -91.7307 -1390 50 32 36 255 
127.94 -91.7307 -1390 55 41 40 255 
129.885 -91.4008 -1385 58 49 45 255 
132.291 -91.4008 -1385 61 42 37 255 
135.182 -91.7307 -1390 54 36 30 255 
137.596 -91.7307 -1390 47 27 41 255 
140.01 -91.7307 -1390 26 1 53 255 
143.039 -92.1267 -1396 6 56 90 255 
-251.4 -89.1327 -1316 130 101 163 255 
-249.114 -89.1327 -1316 123 122 168 255 
-245.891 -88.794 -1311 127 125 173 255 
-243.614 -88.794 -1311 132 125 172 255 
-241.338 -88.794 -1311 132 123 172 255 
-239.061 -88.794 -1311 133 120 170 255 
-235.881 -88.4554 -1306 132 122 168 255 
-233.613 -88.4554 -1306 131 123 168 255 
-231.345 -88.4554 -1306 132 119 169 255 
-228.2 -88.1167 -1301 134 119 168 255 
-225.94 -88.1167 -1301 134 122 167 255 
-222.821 -87.7781 -1296 135 122 168 255 
-220.571 -87.7781 -1296 133 117 170 255 
-217.478 -87.4394 -1291 131 119 164 255 
-215.236 -87.4394 -1291 130 118 159 255 
-212.993 -87.4394 -1291 130 118 156 255 
-210.098 -87.1685 -1287 126 117 153 255 
-207.863 -87.1685 -1287 123 114 153 255 
-205.628 -87.1685 -1287 121 111 154 255 
-203.393 -87.1685 -1287 119 107 150 255 
-200.377 -86.8299 -1282 121 111 147 255 
-198.15 -86.8299 -1282 124 114 159 255 
-195.924 -86.8299 -1282 128 121 172 255 
-193.697 -86.8299 -1282 132 121 173 255 
-190.724 -86.4912 -1277 135 126 174 255 
-188.506 -86.4912 -1277 139 131 171 255 
-185.559 -86.1526 -1272 130 120 169 255 
-183.35 -86.1526 -1272 122 116 147 255 
-181.141 -86.1526 -1272 115 99 125 255 
-178.932 -86.1526 -1272 108 84 134 255 
-176.167 -85.8816 -1268 109 96 143 255 
-173.965 -85.8816 -1268 111 114 138 255 
-171.763 -85.8816 -1268 109 108 134 255 
-169.561 -85.8816 -1268 107 113 131 255 
-167.359 -85.8816 -1268 103 99 128 255 
-165.157 -85.8816 -1268 100 100 125 255 
-162.955 -85.8816 -1268 100 94 122 255 
-160.753 -85.8816 -1268 101 95 122 255 
-157.926 -85.543 -1263 97 90 123 255 
-155.732 -85.543 -1263 94 87 116 255 
-153.052 -85.2721 -1259 88 79 109 255 
-150.866 -85.2721 -1259 83 72 105 255 
-148.68 -85.2721 -1259 80 60 101 255 
-146.493 -85.2721 -1259 78 54 100 255 
-143.733 -84.9334 -1254 81 68 100 255 
-141.556 -84.9334 -1254 85 77 103 255 
-139.378 -84.9334 -1254 91 81 106 255 
-137.2 -84.9334 -1254 98 83 100 255 
-135.022 -84.9334 -1254 81 70 94 255 
-132.845 -84.9334 -1254 65 60 83 255 
-130.667 -84.9334 -1254 62 54 73 255 
-128.489 -84.9334 -1254 60 50 72 255 
-126.311 -84.9334 -1254 50 47 72 255 
-124.133 -84.9334 -1254 40 44 66 255 
-121.956 -84.9334 -1254 52 41 60 255 
-119.778 -84.9334 -1254 64 53 88 255 
-117.6 -84.9334 -1254 80 75 116 255 
-115.422 -84.9334 -1254 96 83 124 255 
-113.245 -84.9334 -1254 95 91 133 255 
-110.624 -84.5948 -1249 94 98 130 255 
-108.455 -84.5948 -1249 94 88 128 255 
-106.286 -84.5948 -1249 94 94 125 255 
-104.117 -84.5948 -1249 87 76 123 255 
-101.948 -84.5948 -1249 80 84 87 255 
-99.7784 -84.5948 -1249 67 45 52 255 
-97.6093 -84.5948 -1249 54 9 28 255 
-95.4403 -84.5948 -1249 36 20 4 255 
-93.2712 -84.5948 -1249 18 23 35 255 
-91.1021 -84.5948 -1249 33 38 67 255 
-88.933 -84.5948 -1249 48 61 63 255 
-86.7639 -84.5948 -1249 46 44 59 255 
-84.5948 -84.5948 -1249 45 44 61 255 
-82.4257 -84.5948 -1249 51 36 63 255 
-79.9995 -84.3238 -1245 57 26 34 255 
-77.8374 -84.3238 -1245 52 27 5 255 
-75.6752 -84.3238 -1245 47 38 27 255 
-73.7493 -84.5948 -1249 58 59 49 255 
-71.5802 -84.5948 -1249 70 67 47 255 
-69.4111 -84.5948 -1249 78 106 45 255 
-67.242 -84.5948 -1249 86 122 54 255 
-65.0729 -84.5948 -1249 80 112 63 255 
-62.9038 -84.5948 -1249 75 107 54 255 
-60.9778 -84.9334 -1254 70 77 46 255 
-58.8001 -84.9334 -1254 66 58 39 255 
-57.0287 -85.543 -1263 60 48 32 255 
-54.8353 -85.543 -1263 55 39 29 255 
-52.8502 -85.8816 -1268 53 30 27 255 
-50.6481 -85.8816 -1268 51 26 22 255 
-48.4461 -85.8816 -1268 39 23 18 255 
-46.3898 -86.1526 -1272 28 18 15 255 
-44.3545 -86.4912 -1277 31 15 13 255 
-42.3017 -86.8299 -1282 35 15 14 255 
-40.2316 -87.1685 -1287 32 16 16 255 
-37.9965 -87.1685 -1287 30 13 10 255 
-35.7614 -87.1685 -1287 23 5 5 255 
-33.5263 -87.1685 -1287 16 1 40 255 
-31.2913 -87.1685 -1287 52 41 76 255 
-29.0562 -87.1685 -1287 89 88 126 255 
-26.7169 -86.8299 -1282 102 118 176 255 
-24.4905 -86.8299 -1282 115 118 128 255 
-22.2641 -86.8299 -1282 100 77 80 255 
-19.9595 -86.4912 -1277 85 55 42 255 
-17.8113 -86.8299 -1282 79 42 4 255 
-15.6456 -87.1685 -1287 74 26 4 255 
-13.4522 -87.4394 -1291 68 29 5 255 
-11.2102 -87.4394 -1291 63 34 17 255 
-8.96815 -87.4394 -1291 57 33 29 255 
-6.75216 -87.7781 -1296 51 33 31 255 
-4.50144 -87.7781 -1296 56 29 34 255 
-2.25072 -87.7781 -1296 62 30 21 255 
0 -87.7781 -1296 65 28 9 255 
2.2594 -88.1167 -1301 68 40 21 255 
4.51881 -88.1167 -1301 64 70 34 255 
6.80426 -88.4554 -1306 61 99 59 255 
9.07235 -88.4554 -1306 83 134 84 255 
11.3839 -88.794 -1311 105 169 97 255 
13.7127 -89.1327 -1316 87 142 110 255 
15.9982 -89.1327 -1316 70 138 74 255 
18.3531 -89.4713 -1321 62 104 38 255 
20.6472 -89.4713 -1321 54 86 35 255 
23.0282 -89.81 -1326 49 45 32 255 
25.331 -89.81 -1326 45 21 18 255 
27.738 -90.1486 -1331 43 19 5 255 
30.0495 -90.1486 -1331 42 17 11 255 
32.361 -90.1486 -1331 54 48 17 255 
34.6726 -90.1486 -1331 66 84 50 255 
36.9841 -90.1486 -1331 79 105 83 255 
39.4432 -90.4873 -1336 92 120 71 255 
41.6071 -90.1486 -1331 71 106 59 255 
43.9186 -90.1486 -1331 51 97 40 255 
46.4037 -90.4873 -1336 48 56 21 255 
48.9427 -90.8937 -1342 45 28 11 255 
51.2733 -90.8937 -1342 40 18 2 255 
53.8037 -91.2323 -1347 36 17 11 255 
56.3514 -91.571 -1352 31 18 21 255 
58.9598 -91.9773 -1358 27 22 32 255 
61.3182 -91.9773 -1358 22 19 43 255 
63.9111 -92.316 -1363 18 21 26 255 
66.2781 -92.316 -1363 17 6 9 255 
68.6452 -92.316 -1363 16 1 52 255 
71.2728 -92.6546 -1368 47 53 95 255 
73.6486 -92.6546 -1368 78 102 149 255 
76.0243 -92.6546 -1368 138 148 203 255 
78.7439 -93.061 -1374 198 224 183 255 
81.1301 -93.061 -1374 196 196 164 255 
83.8202 -93.3997 -1379 194 219 136 255 
86.2151 -93.3997 -1379 170 167 108 255 
88.2887 -93.061 -1374 147 166 129 255 
90.2789 -92.6546 -1368 123 131 150 255 
92.316 -92.316 -1363 99 86 88 255 
94.6831 -92.316 -1363 71 50 26 255 
97.0501 -92.316 -1363 43 39 32 255 
99.4172 -92.316 -1363 53 42 39 255 
101.411 -91.9773 -1358 64 39 30 255 
104.151 -92.316 -1363 46 31 22 255 
106.518 -92.316 -1363 28 23 19 255 
109.285 -92.6546 -1368 29 19 16 255 
112.15 -93.061 -1374 30 13 20 255 
115.454 -93.806 -1385 31 12 25 255 
118.284 -94.1447 -1390 32 8 27 255 
120.698 -94.1447 -1390 38 13 29 255 
123.112 -94.1447 -1390 44 19 32 255 
125.526 -94.1447 -1390 50 33 36 255 
127.48 -93.806 -1385 56 45 38 255 
129.885 -93.806 -1385 58 47 41 255 
132.291 -93.806 -1385 60 50 43 255 
134.112 -93.3997 -1379 53 41 45 255 
136.507 -93.3997 -1379 47 41 23 255 
139.506 -93.806 -1385 46 55 1 255 
142.424 -94.1447 -1390 45 41 33 255 
144.838 -94.1447 -1390 102 117 66 255 
-250.445 -91.0708 -1311 114 115 162 255 
-248.168 -91.0708 -1311 128 119 165 255 
-245.891 -91.0708 -1311 127 121 168 255 
-243.614 -91.0708 -1311 127 119 169 255 
-241.338 -91.0708 -1311 127 119 170 255 
-238.149 -90.7235 -1306 127 119 169 255 
-235.881 -90.7235 -1306 127 122 168 255 
-233.613 -90.7235 -1306 127 119 169 255 
-231.345 -90.7235 -1306 129 121 170 255 
-228.2 -90.3761 -1301 131 124 169 255 
-225.94 -90.3761 -1301 133 128 168 255 
-222.821 -90.0288 -1296 136 119 167 255 
-220.571 -90.0288 -1296 134 101 167 255 
-217.478 -89.6815 -1291 132 116 163 255 
-215.236 -89.6815 -1291 132 125 160 255 
-212.993 -89.6815 -1291 132 123 158 255 
-210.098 -89.4036 -1287 129 123 156 255 
-207.863 -89.4036 -1287 126 118 155 255 
-205.628 -89.4036 -1287 120 115 155 255 
-202.603 -89.0563 -1282 115 114 153 255 
-200.377 -89.0563 -1282 118 116 152 255 
-197.377 -88.7089 -1277 122 122 160 255 
-195.16 -88.7089 -1277 128 133 168 255 
-192.942 -88.7089 -1277 134 129 170 255 
-190.724 -88.7089 -1277 133 126 172 255 
-187.768 -88.3616 -1272 132 120 160 255 
-185.559 -88.3616 -1272 126 102 148 255 
-183.35 -88.3616 -1272 121 99 139 255 
-180.572 -88.0837 -1268 113 88 131 255 
-178.37 -88.0837 -1268 105 98 139 255 
-176.167 -88.0837 -1268 110 112 148 255 
-173.965 -88.0837 -1268 115 109 140 255 
-171.763 -88.0837 -1268 111 101 132 255 
-169.561 -88.0837 -1268 108 95 123 255 
-167.359 -88.0837 -1268 100 82 115 255 
-164.506 -87.7364 -1263 93 87 118 255 
-162.312 -87.7364 -1263 93 90 121 255 
-160.119 -87.7364 -1263 94 89 120 255 
-157.926 -87.7364 -1263 91 86 120 255 
-155.732 -87.7364 -1263 88 81 110 255 
-153.052 -87.4585 -1259 83 73 101 255 
-150.866 -87.4585 -1259 78 64 98 255 
-148.68 -87.4585 -1259 76 61 95 255 
-146.493 -87.4585 -1259 74 61 96 255 
