ply
format ascii 1.0
comment VCGLIB generated
element vertex 1250
property float x
property float y
property float z
property uchar red
property uchar green
property uchar blue
property uchar alpha
element face 0
property list uchar int vertex_indices
end_header
4.30693 -221.807 -1240 59 79 39 255 
6.4604 -221.807 -1240 77 109 49 255 
11.7399 -241.841 -1352 113 97 62 255 
14.0878 -241.841 -1352 118 90 65 255 
-214.339 -218.542 -1210 142 108 134 255 
-212.238 -218.542 -1210 132 96 106 255 
-196.073 -219.265 -1214 81 38 56 255 
-193.965 -219.265 -1214 69 32 48 255 
-191.857 -219.265 -1214 58 32 46 255 
-189.123 -218.542 -1210 52 30 45 255 
-186.403 -217.82 -1206 47 27 42 255 
-183.698 -217.097 -1202 44 24 39 255 
-181.61 -217.097 -1202 41 24 39 255 
-179.523 -217.097 -1202 39 24 40 255 
-177.435 -217.097 -1202 38 20 35 255 
-174.618 -216.194 -1197 20 14 30 255 
-172.54 -216.194 -1197 3 4 56 255 
-169.891 -215.472 -1193 39 1 83 255 
-166.694 -214.027 -1185 76 174 165 255 
-164.08 -213.304 -1181 108 254 247 255 
-162.029 -213.304 -1181 141 239 203 255 
-159.978 -213.304 -1181 142 208 159 255 
-157.927 -213.304 -1181 144 242 185 255 
-155.876 -213.304 -1181 143 254 212 255 
-153.825 -213.304 -1181 142 131 140 255 
-151.774 -213.304 -1181 101 20 69 255 
-149.723 -213.304 -1181 60 51 81 255 
-147.672 -213.304 -1181 66 52 93 255 
-145.128 -212.582 -1177 72 54 85 255 
-143.084 -212.582 -1177 67 56 78 255 
-141.04 -212.582 -1177 63 55 71 255 
-138.996 -212.582 -1177 63 56 64 255 
-136.952 -212.582 -1177 63 54 70 255 
-134.908 -212.582 -1177 62 54 77 255 
-132.864 -212.582 -1177 62 50 73 255 
-130.375 -211.859 -1173 57 47 69 255 
-128.338 -211.859 -1173 53 42 55 255 
-126.301 -211.859 -1173 51 44 41 255 
-124.264 -211.859 -1173 49 24 54 255 
-121.81 -211.137 -1169 25 1 68 255 
-119.78 -211.137 -1169 2 44 85 255 
-117.749 -211.137 -1169 32 56 102 255 
-115.719 -211.137 -1169 63 160 149 255 
-113.689 -211.137 -1169 103 254 197 255 
-111.659 -211.137 -1169 143 191 123 255 
-110.004 -211.859 -1173 95 120 49 255 
-107.967 -211.859 -1173 47 58 28 255 
-106.291 -212.582 -1177 29 1 7 255 
-104.247 -212.582 -1177 11 41 41 255 
-102.55 -213.304 -1181 54 110 75 255 
-100.159 -212.582 -1177 97 129 73 255 
-97.7813 -211.859 -1173 91 135 71 255 
-95.4177 -211.137 -1169 86 142 78 255 
-98.0001 -226.489 -1254 79 73 43 255 
-95.8223 -226.489 -1254 44 1 1 255 
-93.2712 -225.586 -1249 10 2 4 255 
-91.1021 -225.586 -1249 11 5 8 255 
-68.0912 -244.189 -1352 27 5 14 255 
-65.7433 -244.189 -1352 27 5 16 255 
-63.1608 -243.286 -1347 28 9 14 255 
-55.8095 -223.238 -1236 27 7 13 255 
-53.663 -223.238 -1236 26 21 14 255 
-51.5165 -223.238 -1236 24 14 16 255 
-49.37 -223.238 -1236 23 13 13 255 
-47.3763 -223.961 -1240 16 2 11 255 
-45.0769 -223.238 -1236 10 16 44 255 
-42.9304 -223.238 -1236 76 62 78 255 
-40.6519 -222.516 -1232 142 169 127 255 
-37.5745 -217.097 -1202 121 247 177 255 
-35.3394 -216.194 -1197 101 131 101 255 
-33.1495 -215.472 -1193 55 28 25 255 
-31.0777 -215.472 -1193 10 7 18 255 
-28.9086 -214.749 -1189 22 1 11 255 
-26.8437 -214.749 -1189 34 8 9 255 
-26.1334 -226.489 -1254 34 14 7 255 
-24.0511 -227.392 -1259 34 12 10 255 
-21.7778 -226.489 -1254 38 10 13 255 
-19.6 -226.489 -1254 43 11 12 255 
-17.3528 -225.586 -1249 39 13 11 255 
-15.1837 -225.586 -1249 36 14 10 255 
-13.0146 -225.586 -1249 35 14 10 255 
-10.8455 -225.586 -1249 34 14 8 255 
-8.67639 -225.586 -1249 34 14 6 255 
-6.50729 -225.586 -1249 34 20 13 255 
-4.33819 -225.586 -1249 38 25 21 255 
-2.16215 -224.864 -1245 43 36 29 255 
0 -224.864 -1245 50 37 38 255 
2.16215 -224.864 -1245 58 49 39 255 
4.3243 -224.864 -1245 64 60 40 255 
6.48645 -224.864 -1245 71 77 48 255 
11.7399 -244.189 -1352 120 84 58 255 
14.0878 -244.189 -1352 123 87 60 255 
-196.881 -222.285 -1219 53 31 53 255 
-193.965 -221.373 -1214 53 34 47 255 
-191.857 -221.373 -1214 54 39 47 255 
-189.123 -220.643 -1210 51 36 47 255 
-186.403 -219.914 -1206 48 37 46 255 
-183.698 -219.185 -1202 46 32 46 255 
-181.61 -219.185 -1202 44 33 44 255 
-179.523 -219.185 -1202 42 26 42 255 
-177.435 -219.185 -1202 40 22 40 255 
-174.618 -218.273 -1197 22 15 39 255 
-171.963 -217.544 -1193 4 1 53 255 
-168.752 -216.085 -1185 25 53 68 255 
-166.131 -215.355 -1181 46 209 155 255 
-164.08 -215.355 -1181 97 239 243 255 
-162.029 -215.355 -1181 148 240 189 255 
-159.978 -215.355 -1181 137 220 135 255 
-157.927 -215.355 -1181 126 254 168 255 
-155.348 -214.626 -1177 131 220 202 255 
-153.304 -214.626 -1177 136 132 132 255 
-151.26 -214.626 -1177 95 54 62 255 
-149.216 -214.626 -1177 54 65 73 255 
-147.172 -214.626 -1177 61 59 85 255 
-145.128 -214.626 -1177 69 56 79 255 
-143.084 -214.626 -1177 64 54 74 255 
-141.04 -214.626 -1177 60 54 72 255 
-138.996 -214.626 -1177 60 52 71 255 
-136.952 -214.626 -1177 60 51 75 255 
-134.908 -214.626 -1177 58 50 79 255 
-132.412 -213.897 -1173 57 50 72 255 
-130.375 -213.897 -1173 51 47 66 255 
-128.338 -213.897 -1173 45 46 63 255 
-126.301 -213.897 -1173 48 44 61 255 
-124.264 -213.897 -1173 51 40 59 255 
-121.81 -213.167 -1169 30 23 58 255 
-119.78 -213.167 -1169 9 14 36 255 
-117.749 -213.167 -1169 20 54 14 255 
-115.323 -212.438 -1165 32 105 114 255 
-113.689 -213.167 -1169 80 168 214 255 
-111.659 -213.167 -1169 128 206 155 255 
-109.629 -213.167 -1169 105 169 97 255 
-107.599 -213.167 -1169 83 113 49 255 
-105.93 -213.897 -1173 44 39 1 255 
-104.247 -214.626 -1177 6 36 37 255 
-102.55 -215.355 -1181 49 100 74 255 
-100.499 -215.355 -1181 93 138 70 255 
-98.1147 -214.626 -1177 86 134 67 255 
-95.7442 -213.897 -1173 80 140 80 255 
-93.7071 -213.897 -1173 80 134 93 255 
-63.3953 -246.537 -1352 29 9 15 255 
-55.9901 -226.114 -1240 28 8 12 255 
-53.8367 -226.114 -1240 28 8 13 255 
-51.6832 -226.114 -1240 20 12 14 255 
-49.5297 -226.114 -1240 12 12 7 255 
-47.3763 -226.114 -1240 11 3 1 255 
-45.2228 -226.114 -1240 11 1 62 255 
-42.9304 -225.385 -1236 83 142 123 255 
-40.7839 -225.385 -1236 155 254 129 255 
-37.2932 -217.544 -1193 118 173 136 255 
-35.2213 -217.544 -1193 81 45 68 255 
-33.0383 -216.814 -1189 52 18 1 255 
-30.9734 -216.814 -1189 24 2 11 255 
-28.8113 -216.085 -1185 30 8 22 255 
-26.7533 -216.085 -1185 37 17 17 255 
-26.1334 -228.667 -1254 38 18 13 255 
-23.9556 -228.667 -1254 40 21 14 255 
-21.7778 -228.667 -1254 44 16 16 255 
-19.6 -228.667 -1254 48 17 13 255 
-17.4222 -228.667 -1254 46 18 10 255 
-15.2445 -228.667 -1254 44 24 9 255 
-13.0146 -227.755 -1249 42 21 9 255 
-10.8889 -228.667 -1254 40 25 9 255 
-8.71112 -228.667 -1254 40 27 10 255 
-6.53334 -228.667 -1254 41 35 20 255 
-4.33819 -227.755 -1249 48 34 30 255 
-2.16215 -227.026 -1245 55 39 34 255 
0 -227.755 -1249 62 43 39 255 
2.1691 -227.755 -1249 69 53 40 255 
4.3243 -227.026 -1245 75 60 41 255 
9.35716 -245.625 -1347 101 74 53 255 
-192.647 -224.402 -1219 51 39 45 255 
-189.748 -223.481 -1214 50 39 50 255 
-187.022 -222.745 -1210 50 37 49 255 
-184.309 -222.009 -1206 48 34 48 255 
-181.61 -221.272 -1202 47 32 44 255 
-180.12 -222.009 -1206 45 26 41 255 
-177.435 -221.272 -1202 43 26 41 255 
-174.618 -220.352 -1197 24 26 41 255 
-169.657 -216.67 -1177 6 11 46 255 
-168.182 -217.406 -1181 11 1 51 255 
-165.569 -216.67 -1177 16 148 144 255 
-163.525 -216.67 -1177 86 254 237 255 
-161.48 -216.67 -1177 156 226 180 255 
-159.436 -216.67 -1177 132 181 123 255 
-157.392 -216.67 -1177 108 225 160 255 
-155.348 -216.67 -1177 119 241 198 255 
-153.304 -216.67 -1177 130 135 129 255 
-151.26 -216.67 -1177 89 1 60 255 
-149.216 -216.67 -1177 49 45 71 255 
-147.172 -216.67 -1177 57 65 82 255 
-144.635 -215.934 -1173 66 56 75 255 
-142.598 -215.934 -1173 62 53 69 255 
-141.04 -216.67 -1177 58 51 70 255 
-138.996 -216.67 -1177 57 49 71 255 
-136.952 -216.67 -1177 57 48 71 255 
-134.449 -215.934 -1173 54 49 72 255 
-132.864 -216.67 -1177 52 46 68 255 
-130.375 -215.934 -1173 44 45 64 255 
-128.338 -215.934 -1173 37 44 60 255 
-126.301 -215.934 -1173 45 47 57 255 
-124.264 -215.934 -1173 53 42 56 255 
-121.81 -215.197 -1169 35 39 55 255 
-119.78 -215.197 -1169 17 34 41 255 
-117.749 -215.197 -1169 9 42 27 255 
-115.323 -214.461 -1165 1 65 86 255 
-113.3 -214.461 -1165 57 109 145 255 
-111.659 -215.197 -1169 113 178 146 255 
-109.629 -215.197 -1169 116 239 147 255 
-107.599 -215.197 -1169 120 134 74 255 
-105.93 -215.934 -1173 60 10 1 255 
-104.247 -216.67 -1177 1 45 26 255 
-102.203 -216.67 -1177 45 117 51 255 
-100.159 -216.67 -1177 90 125 59 255 
-97.7813 -215.934 -1173 82 123 67 255 
-95.7442 -215.934 -1173 74 137 79 255 
-93.3875 -215.197 -1169 77 159 91 255 
-53.8367 -228.267 -1240 30 13 9 255 
-51.6832 -228.267 -1240 15 16 11 255 
-49.7295 -229.188 -1245 1 9 6 255 
-47.5673 -229.188 -1245 7 1 1 255 
-45.4051 -229.188 -1245 13 95 71 255 
-43.0693 -228.267 -1240 90 254 142 255 
-40.9159 -228.267 -1240 168 217 111 255 
-37.0431 -218.143 -1185 114 149 80 255 
-34.9851 -218.143 -1185 61 49 40 255 
-32.9272 -218.143 -1185 50 1 1 255 
-30.8692 -218.143 -1185 39 8 11 255 
-28.714 -217.406 -1181 39 16 21 255 
-26.5727 -216.67 -1177 40 19 17 255 
-24.0511 -231.765 -1259 46 21 15 255 
-21.8646 -231.765 -1259 49 16 17 255 
-19.6 -230.845 -1254 53 18 15 255 
-17.4222 -230.845 -1254 53 21 14 255 
-15.2445 -230.845 -1254 53 24 11 255 
-13.0667 -230.845 -1254 49 25 9 255 
-10.9323 -231.765 -1259 46 28 11 255 
-8.71112 -230.845 -1254 47 34 13 255 
-6.53334 -230.845 -1254 48 37 21 255 
-4.35556 -230.845 -1254 57 39 29 255 
-2.16215 -229.188 -1245 67 40 34 255 
0 -229.924 -1249 73 43 39 255 
2.1691 -229.924 -1249 80 51 40 255 
-192.647 -226.519 -1219 58 43 43 255 
-190.53 -226.519 -1219 56 40 54 255 
-187.64 -225.59 -1214 54 41 52 255 
-185.532 -225.59 -1214 52 37 51 255 
-182.819 -224.846 -1210 50 37 46 255 
-181.315 -225.59 -1214 47 31 41 255 
-179.207 -225.59 -1214 45 31 42 255 
-177.828 -226.519 -1219 35 29 44 255 
-169.657 -218.714 -1177 26 17 39 255 
-167.613 -218.714 -1177 21 37 34 255 
-165.569 -218.714 -1177 17 129 132 255 
-163.525 -218.714 -1177 87 217 231 255 
-161.48 -218.714 -1177 157 233 171 255 
-159.436 -218.714 -1177 126 200 111 255 
-157.392 -218.714 -1177 96 225 152 255 
-155.348 -218.714 -1177 109 220 194 255 
-153.304 -218.714 -1177 123 169 126 255 
-150.746 -217.971 -1173 82 62 58 255 
-149.216 -218.714 -1177 42 50 68 255 
-146.672 -217.971 -1173 52 56 79 255 
-144.635 -217.971 -1173 62 53 72 255 
-142.598 -217.971 -1173 59 50 65 255 
-140.561 -217.971 -1173 57 48 68 255 
-138.523 -217.971 -1173 56 46 72 255 
-136.486 -217.971 -1173 56 45 68 255 
-134.449 -217.971 -1173 53 44 65 255 
-132.412 -217.971 -1173 51 42 63 255 
-130.375 -217.971 -1173 46 42 62 255 
-128.338 -217.971 -1173 42 41 58 255 
-126.301 -217.971 -1173 50 41 54 255 
-124.264 -217.971 -1173 59 42 53 255 
-121.81 -217.227 -1169 45 41 53 255 
-119.78 -217.227 -1169 32 43 47 255 
-117.749 -217.227 -1169 23 29 41 255 
-115.323 -216.484 -1165 14 5 58 255 
-113.3 -216.484 -1165 35 72 76 255 
-111.277 -216.484 -1165 57 159 136 255 
-109.254 -216.484 -1165 92 189 197 255 
-107.23 -216.484 -1165 128 177 99 255 
-105.568 -217.227 -1169 83 96 1 255 
-103.538 -217.227 -1169 38 21 14 255 
-101.855 -217.971 -1173 60 82 28 255 
-99.8184 -217.971 -1173 83 122 47 255 
-97.7813 -217.971 -1173 78 122 67 255 
-95.7442 -217.971 -1173 74 126 78 255 
-93.7071 -217.971 -1173 81 133 90 255 
-49.7295 -231.35 -1245 1 9 4 255 
-47.5673 -231.35 -1245 41 72 1 255 
-45.4051 -231.35 -1245 82 125 81 255 
-43.243 -231.35 -1245 103 203 161 255 
-41.0808 -231.35 -1245 125 213 93 255 
-36.9181 -219.457 -1181 82 103 25 255 
-34.8671 -219.457 -1181 40 1 13 255 
-32.8161 -219.457 -1181 42 6 1 255 
-30.765 -219.457 -1181 44 16 11 255 
-28.6168 -218.714 -1177 45 18 21 255 
-26.4824 -217.971 -1173 46 21 18 255 
-24.1275 -234.695 -1263 53 26 16 255 
-21.8646 -233.952 -1259 57 22 18 255 
-19.6782 -233.952 -1259 62 22 18 255 
-17.4917 -233.952 -1259 60 23 18 255 
-15.3539 -234.695 -1263 59 26 14 255 
-13.1605 -234.695 -1263 57 28 10 255 
-10.967 -234.695 -1263 55 32 13 255 
-8.74585 -233.952 -1259 56 36 17 255 
-6.53334 -233.022 -1254 58 42 23 255 
-4.33819 -232.093 -1249 65 41 29 255 
-2.16215 -231.35 -1245 72 42 34 255 
6.99182 -249.375 -1342 99 73 42 255 
9.32243 -249.375 -1342 110 75 44 255 
-190.53 -228.636 -1219 62 40 62 255 
-188.413 -228.636 -1219 59 39 59 255 
-186.296 -228.636 -1219 56 36 56 255 
-184.179 -228.636 -1219 53 37 50 255 
-182.062 -228.636 -1219 50 33 45 255 
-179.945 -228.636 -1219 47 39 44 255 
-177.828 -228.636 -1219 46 44 44 255 
-169.657 -220.758 -1177 46 30 31 255 
-167.613 -220.758 -1177 32 4 18 255 
-165.006 -220.008 -1173 19 111 118 255 
-162.969 -220.008 -1173 89 254 218 255 
-160.932 -220.008 -1173 159 220 167 255 
-158.895 -220.008 -1173 121 164 116 255 
-156.857 -220.008 -1173 84 206 155 255 
-154.82 -220.008 -1173 100 245 195 255 
-152.783 -220.008 -1173 117 157 125 255 
-150.232 -219.258 -1169 76 30 55 255 
-148.202 -219.258 -1169 36 46 66 255 
-146.172 -219.258 -1169 47 58 77 255 
-144.142 -219.258 -1169 58 50 70 255 
-142.111 -219.258 -1169 57 49 64 255 
-140.081 -219.258 -1169 56 46 65 255 
-138.051 -219.258 -1169 55 45 67 255 
-136.021 -219.258 -1169 55 44 63 255 
-133.991 -219.258 -1169 52 43 60 255 
-132.412 -220.008 -1173 50 42 57 255 
-130.375 -220.008 -1173 49 41 54 255 
-127.9 -219.258 -1169 48 40 54 255 
-126.301 -220.008 -1173 57 38 54 255 
-124.264 -220.008 -1173 66 39 51 255 
-121.81 -219.258 -1169 56 41 49 255 
-119.78 -219.258 -1169 47 35 43 255 
-117.749 -219.258 -1169 37 26 37 255 
-115.719 -219.258 -1169 28 20 37 255 
-113.689 -219.258 -1169 14 15 38 255 
-111.277 -218.507 -1165 1 91 104 255 
-109.254 -218.507 -1165 68 182 170 255 
-107.23 -218.507 -1165 136 183 119 255 
-105.207 -218.507 -1165 106 176 69 255 
-103.184 -218.507 -1165 76 104 41 255 
-101.508 -219.258 -1169 76 72 14 255 
-99.478 -219.258 -1169 77 109 36 255 
-97.4478 -219.258 -1169 75 118 59 255 
-95.4177 -219.258 -1169 74 131 74 255 
-93.3875 -219.258 -1169 84 159 89 255 
-38.7051 -220.008 -1173 82 134 80 255 
-34.749 -220.758 -1177 19 18 12 255 
-32.7049 -220.758 -1177 34 10 12 255 
-30.5567 -220.008 -1173 49 18 16 255 
-28.5195 -220.008 -1173 51 21 21 255 
-26.4824 -220.008 -1173 53 24 19 255 
-24.223 -237.826 -1268 60 25 19 255 
-22.0209 -237.826 -1268 65 24 20 255 
-19.8188 -237.826 -1268 71 24 19 255 
-17.6167 -237.826 -1268 68 24 19 255 
-15.4147 -237.826 -1268 66 28 17 255 
-13.2126 -237.826 -1268 65 29 15 255 
-11.0105 -237.826 -1268 64 35 17 255 
-8.77364 -236.888 -1263 66 39 20 255 
-189.031 -231.51 -1223 71 40 66 255 
-186.907 -231.51 -1223 67 48 62 255 
-184.179 -230.753 -1219 64 46 55 255 
-182.659 -231.51 -1223 62 44 49 255 
-180.535 -231.51 -1223 60 51 47 255 
-178.411 -231.51 -1223 59 51 45 255 
-166.473 -221.288 -1169 38 40 2 255 
-164.443 -221.288 -1169 18 59 104 255 
-162.413 -221.288 -1169 89 191 206 255 
-160.383 -221.288 -1169 160 230 163 255 
-158.895 -222.045 -1173 123 187 121 255 
-156.857 -222.045 -1173 87 192 158 255 
-154.82 -222.045 -1173 103 213 196 255 
-152.262 -221.288 -1169 120 187 124 255 
-150.232 -221.288 -1169 76 83 53 255 
-148.202 -221.288 -1169 33 48 64 255 
-146.172 -221.288 -1169 44 44 76 255 
-144.142 -221.288 -1169 55 42 70 255 
-142.111 -221.288 -1169 53 44 64 255 
-140.081 -221.288 -1169 51 45 63 255 
-138.051 -221.288 -1169 51 44 63 255 
-136.021 -221.288 -1169 51 45 59 255 
-133.991 -221.288 -1169 48 44 56 255 
-131.961 -221.288 -1169 46 44 51 255 
-129.93 -221.288 -1169 45 42 47 255 
-127.9 -221.288 -1169 44 42 50 255 
-125.87 -221.288 -1169 48 39 54 255 
-123.84 -221.288 -1169 53 39 49 255 
-121.81 -221.288 -1169 49 37 45 255 
-119.78 -221.288 -1169 45 32 39 255 
-117.749 -221.288 -1169 39 33 34 255 
-115.719 -221.288 -1169 33 37 17 255 
-113.689 -221.288 -1169 24 22 1 255 
-111.659 -221.288 -1169 15 9 72 255 
-109.254 -220.531 -1165 41 100 143 255 
-107.23 -220.531 -1165 68 197 140 255 
-105.207 -220.531 -1165 86 182 137 255 
-103.184 -220.531 -1165 105 148 69 255 
-101.161 -220.531 -1165 92 122 1 255 
-99.1376 -220.531 -1165 79 127 26 255 
-97.4478 -221.288 -1169 69 122 52 255 
-95.4177 -221.288 -1169 60 125 70 255 
-93.3875 -221.288 -1169 80 142 89 255 
-38.7051 -222.045 -1173 52 52 67 255 
-36.668 -222.045 -1173 46 29 1 255 
-34.749 -222.802 -1177 41 12 12 255 
-164.443 -223.318 -1169 18 95 102 255 
-162.413 -223.318 -1169 90 223 190 255 
-160.383 -223.318 -1169 162 216 152 255 
-158.353 -223.318 -1169 126 162 115 255 
-156.323 -223.318 -1169 90 188 151 255 
-154.292 -223.318 -1169 107 230 188 255 
-152.262 -223.318 -1169 124 164 118 255 
-150.232 -223.318 -1169 77 71 49 255 
-148.202 -223.318 -1169 31 48 59 255 
-146.172 -223.318 -1169 41 30 69 255 
-144.142 -223.318 -1169 52 38 63 255 
-142.111 -223.318 -1169 49 44 58 255 
-140.081 -223.318 -1169 47 43 58 255 
-138.051 -223.318 -1169 47 44 59 255 
-136.021 -223.318 -1169 48 43 57 255 
-133.991 -223.318 -1169 45 47 55 255 
-131.961 -223.318 -1169 42 42 52 255 
-129.93 -223.318 -1169 41 44 50 255 
-127.9 -223.318 -1169 41 41 49 255 
-125.87 -223.318 -1169 41 41 49 255 
-123.84 -223.318 -1169 41 38 48 255 
-121.81 -223.318 -1169 42 39 47 255 
-119.78 -223.318 -1169 44 34 43 255 
-117.749 -223.318 -1169 41 38 39 255 
-115.719 -223.318 -1169 38 33 31 255 
-113.689 -223.318 -1169 33 27 23 255 
-111.277 -222.554 -1165 29 20 47 255 
-109.254 -222.554 -1165 15 14 72 255 
-107.23 -222.554 -1165 1 111 106 255 
-105.207 -222.554 -1165 67 209 140 255 
-103.184 -222.554 -1165 134 173 102 255 
-101.161 -222.554 -1165 108 143 64 255 
-99.1376 -222.554 -1165 82 135 57 255 
-97.1144 -222.554 -1165 64 121 51 255 
-95.4177 -223.318 -1169 47 131 71 255 
-93.3875 -223.318 -1169 77 165 91 255 
-165.006 -226.119 -1173 31 58 100 255 
-162.413 -225.348 -1169 92 187 174 255 
-160.932 -226.119 -1173 153 250 142 255 
-158.353 -225.348 -1169 115 187 110 255 
-156.323 -225.348 -1169 77 168 145 255 
-154.292 -225.348 -1169 100 195 180 255 
-152.262 -225.348 -1169 123 170 112 255 
-150.232 -225.348 -1169 77 85 45 255 
-148.202 -225.348 -1169 32 45 54 255 
-146.172 -225.348 -1169 40 35 63 255 
-144.142 -225.348 -1169 49 36 58 255 
-142.111 -225.348 -1169 46 41 53 255 
-140.081 -225.348 -1169 44 42 54 255 
-138.051 -225.348 -1169 45 41 55 255 
-136.021 -225.348 -1169 46 40 54 255 
-133.991 -225.348 -1169 45 38 54 255 
-131.961 -225.348 -1169 44 35 53 255 
-129.93 -225.348 -1169 42 37 53 255 
-127.9 -225.348 -1169 40 39 49 255 
-125.87 -225.348 -1169 39 37 45 255 
-123.84 -225.348 -1169 39 36 47 255 
-121.81 -225.348 -1169 43 34 49 255 
-119.78 -225.348 -1169 48 31 46 255 
-117.749 -225.348 -1169 45 32 44 255 
-115.719 -225.348 -1169 42 34 45 255 
-113.689 -225.348 -1169 37 33 46 255 
-111.659 -225.348 -1169 32 34 23 255 
-109.254 -224.577 -1165 22 27 1 255 
-107.23 -224.577 -1165 12 27 72 255 
-105.207 -224.577 -1165 39 115 143 255 
-102.83 -223.806 -1161 67 194 135 255 
-101.161 -224.577 -1165 82 168 128 255 
-99.1376 -224.577 -1165 97 150 89 255 
-97.1144 -224.577 -1165 81 131 51 255 
-95.4177 -225.348 -1169 66 113 72 255 
-93.3875 -225.348 -1169 84 138 93 255 
-164.443 -227.378 -1169 45 107 105 255 
-162.413 -227.378 -1169 94 218 165 255 
-160.932 -228.156 -1173 144 219 147 255 
-158.353 -227.378 -1169 104 170 129 255 
-156.323 -227.378 -1169 65 179 152 255 
-154.292 -227.378 -1169 93 212 175 255 
-152.262 -227.378 -1169 122 154 118 255 
-150.232 -227.378 -1169 78 56 61 255 
-148.202 -227.378 -1169 34 43 57 255 
-146.172 -227.378 -1169 40 30 54 255 
-144.142 -227.378 -1169 47 36 53 255 
-142.111 -227.378 -1169 44 44 52 255 
-140.081 -227.378 -1169 41 41 51 255 
-138.051 -227.378 -1169 43 39 50 255 
-136.021 -227.378 -1169 45 36 50 255 
-133.991 -227.378 -1169 45 33 51 255 
-131.961 -227.378 -1169 46 31 54 255 
-129.93 -227.378 -1169 42 32 58 255 
-127.9 -227.378 -1169 39 34 48 255 
-125.87 -227.378 -1169 38 36 39 255 
-123.84 -227.378 -1169 37 34 42 255 
-121.81 -227.378 -1169 44 32 46 255 
-119.78 -227.378 -1169 52 30 44 255 
-117.749 -227.378 -1169 49 28 43 255 
-115.719 -227.378 -1169 46 33 42 255 
-113.689 -227.378 -1169 40 37 42 255 
-111.659 -227.378 -1169 35 35 32 255 
-109.629 -227.378 -1169 29 36 22 255 
-107.23 -226.6 -1165 23 31 47 255 
-105.207 -226.6 -1165 12 34 72 255 
-103.184 -226.6 -1165 1 119 102 255 
-101.161 -226.6 -1165 56 187 132 255 
-99.1376 -226.6 -1165 112 160 108 255 
-97.1144 -226.6 -1165 98 142 84 255 
-95.0912 -226.6 -1165 85 136 85 255 
-93.3875 -227.378 -1169 91 135 86 255 
-91.3573 -227.378 -1169 98 125 43 255 
-164.443 -229.408 -1169 66 103 110 255 
-162.413 -229.408 -1169 105 191 157 255 
-160.383 -229.408 -1169 145 239 152 255 
-158.353 -229.408 -1169 110 196 148 255 
-156.323 -229.408 -1169 76 169 159 255 
-154.292 -229.408 -1169 96 185 170 255 
-152.262 -229.408 -1169 117 181 124 255 
-150.232 -229.408 -1169 75 91 78 255 
-148.202 -229.408 -1169 34 41 62 255 
-146.172 -229.408 -1169 40 31 46 255 
-144.142 -229.408 -1169 47 36 49 255 
-142.111 -229.408 -1169 39 40 52 255 
-140.081 -229.408 -1169 31 42 48 255 
-138.051 -229.408 -1169 37 38 45 255 
-136.021 -229.408 -1169 43 35 47 255 
-133.991 -229.408 -1169 46 33 49 255 
-131.961 -229.408 -1169 50 26 56 255 
-129.93 -229.408 -1169 45 29 63 255 
-127.9 -229.408 -1169 40 30 48 255 
-125.87 -229.408 -1169 36 33 33 255 
-123.84 -229.408 -1169 33 34 38 255 
-121.81 -229.408 -1169 35 32 43 255 
-119.78 -229.408 -1169 38 31 43 255 
-117.749 -229.408 -1169 40 31 43 255 
-115.719 -229.408 -1169 42 34 40 255 
-113.689 -229.408 -1169 36 33 38 255 
-111.659 -229.408 -1169 31 35 41 255 
-109.629 -229.408 -1169 30 31 44 255 
-107.599 -229.408 -1169 29 29 22 255 
-105.207 -228.623 -1165 16 37 1 255 
-103.184 -228.623 -1165 3 64 69 255 
-101.161 -228.623 -1165 37 106 137 255 
-99.1376 -228.623 -1165 71 163 127 255 
-97.1144 -228.623 -1165 82 157 118 255 
-95.0912 -228.623 -1165 93 157 99 255 
-93.068 -228.623 -1165 98 151 80 255 
-91.3573 -229.408 -1169 103 146 40 255 
-167.043 -232.231 -1173 101 65 70 255 
-164.443 -231.439 -1169 87 113 110 255 
-162.413 -231.439 -1169 116 207 150 255 
-160.383 -231.439 -1169 146 217 149 255 
-158.353 -231.439 -1169 117 206 148 255 
-156.323 -231.439 -1169 88 177 147 255 
-154.292 -231.439 -1169 100 180 147 255 
-152.262 -231.439 -1169 112 159 115 255 
-150.232 -231.439 -1169 73 89 83 255 
-148.202 -231.439 -1169 34 40 61 255 
-146.172 -231.439 -1169 40 21 40 255 
-144.142 -231.439 -1169 47 32 44 255 
-142.111 -231.439 -1169 34 39 48 255 
-140.081 -231.439 -1169 22 39 46 255 
-138.051 -231.439 -1169 31 38 44 255 
-136.021 -231.439 -1169 41 37 45 255 
-133.991 -231.439 -1169 48 40 46 255 
-131.961 -231.439 -1169 55 30 50 255 
-129.93 -231.439 -1169 48 28 54 255 
-127.463 -230.647 -1165 42 30 45 255 
-125.439 -230.647 -1165 36 32 36 255 
-123.416 -230.647 -1165 30 33 38 255 
-121.81 -231.439 -1169 27 34 41 255 
-119.78 -231.439 -1169 24 31 39 255 
-117.749 -231.439 -1169 31 32 38 255 
-115.719 -231.439 -1169 39 31 38 255 
-113.689 -231.439 -1169 33 30 39 255 
-111.659 -231.439 -1169 28 28 40 255 
-109.629 -231.439 -1169 32 26 42 255 
-107.599 -231.439 -1169 36 25 27 255 
-105.207 -230.647 -1165 20 23 12 255 
-103.184 -230.647 -1165 5 26 41 255 
-100.813 -229.855 -1161 18 12 70 255 
-99.1376 -230.647 -1165 31 109 92 255 
-97.1144 -230.647 -1165 66 168 114 255 
-95.0912 -230.647 -1165 102 159 100 255 
-93.068 -230.647 -1165 105 169 86 255 
-91.0447 -230.647 -1165 108 153 71 255 
-89.0215 -230.647 -1165 84 132 57 255 
-167.043 -234.268 -1173 106 75 76 255 
-165.006 -234.268 -1173 89 79 109 255 
-162.413 -233.469 -1169 116 164 143 255 
-160.383 -233.469 -1169 143 218 146 255 
-158.353 -233.469 -1169 118 198 149 255 
-156.323 -233.469 -1169 93 153 137 255 
-154.292 -233.469 -1169 101 164 125 255 
-152.262 -233.469 -1169 110 189 107 255 
-150.232 -233.469 -1169 73 108 89 255 
-148.202 -233.469 -1169 37 11 61 255 
-146.172 -233.469 -1169 42 18 34 255 
-144.142 -233.469 -1169 47 32 39 255 
-142.111 -233.469 -1169 38 37 45 255 
-140.081 -233.469 -1169 30 41 44 255 
-138.051 -233.469 -1169 36 36 44 255 
-136.021 -233.469 -1169 42 38 43 255 
-133.991 -233.469 -1169 45 35 43 255 
-131.961 -233.469 -1169 49 28 44 255 
-129.486 -232.67 -1165 46 28 45 255 
-127.463 -232.67 -1165 43 30 42 255 
-125.439 -232.67 -1165 38 31 39 255 
-123.416 -232.67 -1165 34 33 39 255 
-121.81 -233.469 -1169 31 29 39 255 
-119.78 -233.469 -1169 29 28 36 255 
-117.749 -233.469 -1169 33 30 33 255 
-115.719 -233.469 -1169 38 30 36 255 
-113.689 -233.469 -1169 37 27 40 255 
-111.659 -233.469 -1169 37 24 40 255 
-109.629 -233.469 -1169 35 23 41 255 
-107.599 -233.469 -1169 33 23 32 255 
-105.207 -232.67 -1165 23 18 23 255 
-103.184 -232.67 -1165 14 6 13 255 
-101.161 -232.67 -1165 16 29 4 255 
-99.1376 -232.67 -1165 18 96 57 255 
-97.1144 -232.67 -1165 50 131 111 255 
-95.0912 -232.67 -1165 83 143 101 255 
-93.068 -232.67 -1165 90 157 92 255 
-91.0447 -232.67 -1165 97 169 102 255 
-88.7159 -231.871 -1161 82 147 113 255 
-166.473 -235.499 -1169 113 72 98 255 
-164.443 -235.499 -1169 92 102 121 255 
-162.413 -235.499 -1169 116 156 144 255 
-160.383 -235.499 -1169 140 207 152 255 
-158.353 -235.499 -1169 119 219 160 255 
-156.323 -235.499 -1169 99 164 134 255 
-154.292 -235.499 -1169 104 137 108 255 
-152.262 -235.499 -1169 109 166 101 255 
-150.232 -235.499 -1169 74 145 94 255 
-148.202 -235.499 -1169 40 41 60 255 
-146.172 -235.499 -1169 43 9 26 255 
-144.142 -235.499 -1169 47 28 34 255 
-142.111 -235.499 -1169 43 37 42 255 
-140.081 -235.499 -1169 39 33 41 255 
-138.051 -235.499 -1169 41 30 41 255 
-136.021 -235.499 -1169 44 33 41 255 
-133.991 -235.499 -1169 44 34 41 255 
-131.961 -235.499 -1169 44 28 40 255 
-129.93 -235.499 -1169 44 27 39 255 
-127.463 -234.693 -1165 44 29 37 255 
-125.439 -234.693 -1165 41 32 36 255 
-123.416 -234.693 -1165 39 29 36 255 
-121.81 -235.499 -1169 36 25 37 255 
-119.78 -235.499 -1169 34 26 35 255 
-117.749 -235.499 -1169 36 30 33 255 
-115.719 -235.499 -1169 38 28 37 255 
-113.689 -235.499 -1169 42 26 42 255 
-111.659 -235.499 -1169 47 23 39 255 
-109.629 -235.499 -1169 39 21 37 255 
-107.599 -235.499 -1169 31 22 32 255 
-105.207 -234.693 -1165 27 24 27 255 
-103.184 -234.693 -1165 23 10 17 255 
-101.161 -234.693 -1165 14 3 7 255 
-99.1376 -234.693 -1165 5 68 52 255 
-97.1144 -234.693 -1165 34 118 97 255 
-95.0912 -234.693 -1165 64 135 101 255 
-92.7484 -233.887 -1161 75 150 106 255 
-90.7321 -233.887 -1161 86 152 99 255 
-88.7159 -233.887 -1161 81 146 93 255 
-86.4009 -233.081 -1157 76 137 69 255 
-84.3916 -233.081 -1157 88 150 45 255 
-164.443 -237.529 -1169 122 103 133 255 
-162.413 -237.529 -1169 132 154 146 255 
-160.383 -237.529 -1169 143 238 158 255 
-158.353 -237.529 -1169 121 211 171 255 
-156.323 -237.529 -1169 99 150 131 255 
-154.292 -237.529 -1169 103 151 91 255 
-152.262 -237.529 -1169 108 195 95 255 
-150.232 -237.529 -1169 80 124 100 255 
-147.695 -236.716 -1165 53 1 59 255 
-146.172 -237.529 -1169 50 11 19 255 
-144.142 -237.529 -1169 48 34 29 255 
-142.111 -237.529 -1169 43 31 40 255 
-140.081 -237.529 -1169 39 27 39 255 
-138.051 -237.529 -1169 39 28 39 255 
-136.021 -237.529 -1169 40 30 39 255 
-133.991 -237.529 -1169 40 29 40 255 
-131.961 -237.529 -1169 41 27 37 255 
-129.93 -237.529 -1169 41 26 34 255 
-127.463 -236.716 -1165 41 29 34 255 
-125.439 -236.716 -1165 38 28 34 255 
-123.416 -236.716 -1165 36 29 34 255 
-121.81 -237.529 -1169 34 24 35 255 
-119.78 -237.529 -1169 32 22 34 255 
-117.749 -237.529 -1169 32 24 34 255 
-115.719 -237.529 -1169 32 26 39 255 
-113.689 -237.529 -1169 35 24 44 255 
-111.659 -237.529 -1169 39 24 38 255 
-109.629 -237.529 -1169 29 21 33 255 
-107.23 -236.716 -1165 20 22 32 255 
-105.207 -236.716 -1165 20 19 31 255 
-103.184 -236.716 -1165 20 10 20 255 
-101.161 -236.716 -1165 12 19 10 255 
-99.1376 -236.716 -1165 5 58 46 255 
-97.1144 -236.716 -1165 37 102 83 255 
-95.0912 -236.716 -1165 70 130 101 255 
-93.068 -236.716 -1165 73 143 120 255 
-90.7321 -235.904 -1161 77 144 96 255 
-88.7159 -235.904 -1161 72 124 73 255 
-86.6996 -235.904 -1161 67 114 81 255 
-84.3916 -235.091 -1157 71 114 89 255 
-82.3823 -235.091 -1157 76 150 107 255 
-165.006 -240.379 -1173 153 112 137 255 
-162.413 -239.559 -1169 150 122 139 255 
-160.383 -239.559 -1169 147 200 160 255 
-158.353 -239.559 -1169 123 238 181 255 
-156.323 -239.559 -1169 99 173 132 255 
-154.292 -239.559 -1169 103 124 83 255 
-152.262 -239.559 -1169 108 157 91 255 
-150.232 -239.559 -1169 87 156 99 255 
-147.695 -238.74 -1165 67 50 58 255 
-146.172 -239.559 -1169 58 4 18 255 
-144.142 -239.559 -1169 49 24 29 255 
-142.111 -239.559 -1169 44 30 40 255 
-140.081 -239.559 -1169 39 26 39 255 
-137.579 -238.74 -1165 37 29 38 255 
-135.556 -238.74 -1165 36 26 35 255 
-133.991 -239.559 -1169 37 27 33 255 
-131.509 -238.74 -1165 39 25 32 255 
-129.486 -238.74 -1165 38 24 31 255 
-127.463 -238.74 -1165 38 23 33 255 
-125.439 -238.74 -1165 36 22 36 255 
-123.416 -238.74 -1165 34 22 33 255 
-121.81 -239.559 -1169 32 22 31 255 
-119.78 -239.559 -1169 31 20 32 255 
-117.749 -239.559 -1169 29 21 34 255 
-115.719 -239.559 -1169 27 20 37 255 
-113.689 -239.559 -1169 29 23 41 255 
-111.659 -239.559 -1169 31 19 35 255 
-109.629 -239.559 -1169 20 18 30 255 
-107.599 -239.559 -1169 9 18 28 255 
-105.207 -238.74 -1165 13 21 26 255 
-103.184 -238.74 -1165 18 12 15 255 
-101.161 -238.74 -1165 11 6 5 255 
-99.1376 -238.74 -1165 5 43 41 255 
-97.1144 -238.74 -1165 41 102 78 255 
-95.0912 -238.74 -1165 77 124 96 255 
-93.068 -238.74 -1165 72 150 114 255 
-90.7321 -237.92 -1161 68 135 88 255 
-88.7159 -237.92 -1161 63 95 62 255 
-86.6996 -237.92 -1161 59 83 57 255 
-84.3916 -237.1 -1157 55 42 52 255 
-82.3823 -237.1 -1157 51 76 66 255 
-80.0951 -236.28 -1153 59 98 80 255 
-164.443 -241.589 -1169 152 116 142 255 
-162.413 -241.589 -1169 148 136 133 255 
-160.383 -241.589 -1169 145 203 162 255 
-158.353 -241.589 -1169 123 216 192 255 
-156.323 -241.589 -1169 101 180 134 255 
-154.292 -241.589 -1169 94 145 76 255 
-152.262 -241.589 -1169 87 154 87 255 
-150.232 -241.589 -1169 82 124 99 255 
-147.695 -240.763 -1165 77 39 58 255 
-146.172 -241.589 -1169 55 18 18 255 
-144.142 -241.589 -1169 33 29 29 255 
-141.625 -240.763 -1165 33 25 40 255 
-139.602 -240.763 -1165 33 21 39 255 
-137.579 -240.763 -1165 29 23 38 255 
-135.556 -240.763 -1165 26 21 32 255 
-133.532 -240.763 -1165 29 24 27 255 
-131.509 -240.763 -1165 33 26 27 255 
-129.486 -240.763 -1165 33 22 28 255 
-127.463 -240.763 -1165 34 17 33 255 
-125.439 -240.763 -1165 35 18 39 255 
-123.416 -240.763 -1165 36 16 33 255 
-121.393 -240.763 -1165 32 16 27 255 
-119.37 -240.763 -1165 28 17 30 255 
-117.347 -240.763 -1165 30 15 34 255 
-115.323 -240.763 -1165 32 12 36 255 
-113.3 -240.763 -1165 31 15 39 255 
-111.277 -240.763 -1165 31 13 33 255 
-109.254 -240.763 -1165 23 14 28 255 
-107.23 -240.763 -1165 15 12 24 255 
-105.207 -240.763 -1165 18 15 21 255 
-103.184 -240.763 -1165 21 14 11 255 
-101.161 -240.763 -1165 12 9 1 255 
-99.1376 -240.763 -1165 4 9 37 255 
-97.1144 -240.763 -1165 38 71 74 255 
-95.0912 -240.763 -1165 72 116 91 255 
-92.7484 -239.936 -1161 74 140 109 255 
-90.7321 -239.936 -1161 76 155 80 255 
-88.7159 -239.936 -1161 68 109 51 255 
-86.6996 -239.936 -1161 61 83 33 255 
-84.6833 -239.936 -1161 54 40 15 255 
-82.3823 -239.109 -1157 47 15 25 255 
-80.0951 -238.283 -1153 57 52 36 255 
-78.0927 -238.283 -1153 68 65 42 255 
-76.0903 -238.283 -1153 64 79 49 255 
-74.0879 -238.283 -1153 61 88 47 255 
-72.3356 -239.109 -1157 50 75 45 255 
-70.0832 -238.283 -1153 39 71 50 255 
-68.0808 -238.283 -1153 44 66 55 255 
-162.413 -243.62 -1169 147 104 134 255 
-160.383 -243.62 -1169 143 179 161 255 
-158.353 -243.62 -1169 123 244 188 255 
-156.323 -243.62 -1169 103 184 131 255 
-154.292 -243.62 -1169 85 122 74 255 
-152.262 -243.62 -1169 67 138 90 255 
-150.232 -243.62 -1169 77 149 106 255 
-147.695 -242.786 -1165 88 75 65 255 
-145.672 -242.786 -1165 52 2 24 255 
-143.648 -242.786 -1165 17 16 31 255 
-141.625 -242.786 -1165 22 22 39 255 
-139.602 -242.786 -1165 27 23 36 255 
-137.579 -242.786 -1165 22 24 34 255 
-135.556 -242.786 -1165 17 24 30 255 
-133.532 -242.786 -1165 22 26 26 255 
-131.509 -242.786 -1165 28 24 26 255 
-129.486 -242.786 -1165 29 22 26 255 
-127.463 -242.786 -1165 30 19 32 255 
-125.439 -242.786 -1165 34 19 39 255 
-123.416 -242.786 -1165 39 15 33 255 
-121.393 -242.786 -1165 32 12 27 255 
-119.37 -242.786 -1165 26 15 27 255 
-117.347 -242.786 -1165 31 14 27 255 
-115.323 -242.786 -1165 37 13 30 255 
-113.3 -242.786 -1165 34 14 34 255 
-111.277 -242.786 -1165 31 14 30 255 
-109.254 -242.786 -1165 26 15 26 255 
-107.23 -242.786 -1165 21 14 24 255 
-105.207 -242.786 -1165 23 14 22 255 
-103.184 -242.786 -1165 25 12 19 255 
-101.161 -242.786 -1165 14 8 16 255 
-99.1376 -242.786 -1165 3 19 40 255 
-97.1144 -242.786 -1165 35 58 65 255 
-95.0912 -242.786 -1165 68 113 80 255 
-93.068 -242.786 -1165 76 140 95 255 
-90.7321 -241.952 -1161 84 134 73 255 
-88.7159 -241.952 -1161 74 104 52 255 
-86.6996 -241.952 -1161 64 71 38 255 
-84.6833 -241.952 -1161 54 21 24 255 
-82.3823 -241.119 -1157 44 22 25 255 
-80.0951 -240.285 -1153 56 31 26 255 
-78.3636 -241.119 -1157 69 49 33 255 
-76.3543 -241.119 -1157 64 54 41 255 
-74.345 -241.119 -1157 59 46 38 255 
-72.5857 -241.952 -1161 31 15 36 255 
-70.5695 -241.952 -1161 3 26 34 255 
-162.413 -245.65 -1169 160 130 136 255 
-160.932 -246.49 -1173 154 167 160 255 
-158.353 -245.65 -1169 129 206 184 255 
-156.323 -245.65 -1169 105 193 128 255 
-154.292 -245.65 -1169 83 143 73 255 
-152.262 -245.65 -1169 61 131 93 255 
-149.718 -244.809 -1165 74 131 113 255 
-147.695 -244.809 -1165 87 111 72 255 
-145.672 -244.809 -1165 53 38 31 255 
-143.648 -244.809 -1165 19 12 35 255 
-141.625 -244.809 -1165 25 21 39 255 
-139.602 -244.809 -1165 31 26 35 255 
-137.579 -244.809 -1165 28 24 31 255 
-135.556 -244.809 -1165 25 25 28 255 
-133.532 -244.809 -1165 25 26 26 255 
-131.509 -244.809 -1165 25 23 25 255 
-129.486 -244.809 -1165 26 21 25 255 
-127.463 -244.809 -1165 28 22 32 255 
-125.439 -244.809 -1165 30 17 39 255 
-123.416 -244.809 -1165 32 14 33 255 
-121.393 -244.809 -1165 26 14 28 255 
-119.37 -244.809 -1165 20 17 24 255 
-117.347 -244.809 -1165 29 15 21 255 
-115.323 -244.809 -1165 39 15 25 255 
-113.3 -244.809 -1165 34 15 30 255 
-111.277 -244.809 -1165 29 17 27 255 
-109.254 -244.809 -1165 26 17 25 255 
-107.23 -244.809 -1165 23 17 24 255 
-105.207 -244.809 -1165 25 14 23 255 
-103.184 -244.809 -1165 27 15 27 255 
-101.161 -244.809 -1165 21 7 31 255 
-99.1376 -244.809 -1165 16 1 43 255 
-97.1144 -244.809 -1165 36 67 56 255 
-95.0912 -244.809 -1165 56 138 68 255 
-93.068 -244.809 -1165 65 137 81 255 
-91.0447 -244.809 -1165 75 140 67 255 
-89.0215 -244.809 -1165 71 114 53 255 
-86.9983 -244.809 -1165 67 79 43 255 
-84.6833 -243.969 -1161 62 36 33 255 
-82.6671 -243.969 -1161 58 23 24 255 
-80.6508 -243.969 -1161 66 36 16 255 
-78.3636 -243.128 -1157 74 50 24 255 
-76.6183 -243.969 -1161 67 45 33 255 
-74.345 -243.128 -1157 60 31 30 255 
-162.413 -247.68 -1169 174 115 142 255 
-160.383 -247.68 -1169 166 165 160 255 
-158.353 -247.68 -1169 136 223 179 255 
-156.323 -247.68 -1169 107 187 127 255 
-154.292 -247.68 -1169 81 127 75 255 
-152.262 -247.68 -1169 56 128 91 255 
-150.232 -247.68 -1169 71 134 107 255 
-147.695 -246.832 -1165 86 99 66 255 
-145.672 -246.832 -1165 53 31 26 255 
-143.648 -246.832 -1165 21 20 27 255 
-141.625 -246.832 -1165 28 27 28 255 
-139.602 -246.832 -1165 36 24 28 255 
-137.579 -246.832 -1165 35 25 29 255 
-135.556 -246.832 -1165 34 25 27 255 
-133.532 -246.832 -1165 28 31 26 255 
-131.509 -246.832 -1165 23 25 23 255 
-129.486 -246.832 -1165 25 21 21 255 
-127.463 -246.832 -1165 27 19 27 255 
-125.439 -246.832 -1165 26 15 34 255 
-123.416 -246.832 -1165 25 15 29 255 
-121.393 -246.832 -1165 20 17 25 255 
-119.37 -246.832 -1165 15 16 20 255 
-117.347 -246.832 -1165 28 14 15 255 
-115.323 -246.832 -1165 42 15 18 255 
-113.3 -246.832 -1165 34 17 22 255 
-111.277 -246.832 -1165 27 17 22 255 
-109.254 -246.832 -1165 26 20 22 255 
-107.23 -246.832 -1165 26 15 20 255 
-105.207 -246.832 -1165 28 13 18 255 
-103.184 -246.832 -1165 30 10 24 255 
-101.161 -246.832 -1165 30 4 31 255 
-99.1376 -246.832 -1165 30 21 41 255 
-97.1144 -246.832 -1165 37 74 52 255 
-95.0912 -246.832 -1165 44 112 64 255 
-93.068 -246.832 -1165 55 132 76 255 
-91.0447 -246.832 -1165 67 131 70 255 
-89.0215 -246.832 -1165 69 134 65 255 
-86.9983 -246.832 -1165 71 88 45 255 
-84.9751 -246.832 -1165 71 23 26 255 
-82.9519 -246.832 -1165 72 30 23 255 
-80.9287 -246.832 -1165 75 44 21 255 
-78.6345 -245.985 -1161 79 48 24 255 
-162.969 -250.565 -1173 176 146 148 255 
-160.932 -250.565 -1173 168 158 161 255 
-158.353 -249.71 -1169 143 196 175 255 
-156.323 -249.71 -1169 118 205 126 255 
-154.292 -249.71 -1169 83 144 77 255 
-152.262 -249.71 -1169 48 121 89 255 
-150.232 -249.71 -1169 65 127 101 255 
-147.695 -248.856 -1165 83 123 61 255 
-145.672 -248.856 -1165 50 42 21 255 
-143.648 -248.856 -1165 18 11 19 255 
-141.625 -248.856 -1165 27 18 17 255 
-139.602 -248.856 -1165 36 21 22 255 
-137.579 -248.856 -1165 37 21 27 255 
-135.556 -248.856 -1165 38 21 26 255 
-133.532 -248.856 -1165 28 24 26 255 
-131.509 -248.856 -1165 18 25 22 255 
-129.486 -248.856 -1165 22 21 18 255 
-127.463 -248.856 -1165 26 20 24 255 
-125.87 -249.71 -1169 25 16 30 255 
-123.416 -248.856 -1165 24 17 26 255 
-121.393 -248.856 -1165 22 17 22 255 
-119.37 -248.856 -1165 20 20 15 255 
-117.347 -248.856 -1165 28 16 9 255 
-115.323 -248.856 -1165 36 17 11 255 
-113.3 -248.856 -1165 30 16 14 255 
-111.277 -248.856 -1165 25 17 17 255 
-109.254 -248.856 -1165 25 16 20 255 
-107.23 -248.856 -1165 26 14 17 255 
-105.207 -248.856 -1165 27 11 14 255 
-103.184 -248.856 -1165 28 10 22 255 
-101.161 -248.856 -1165 22 6 31 255 
-99.1376 -248.856 -1165 17 7 40 255 
-97.1144 -248.856 -1165 29 67 49 255 
-95.0912 -248.856 -1165 42 107 60 255 
-93.068 -248.856 -1165 52 118 71 255 
-91.0447 -248.856 -1165 62 121 74 255 
-89.0215 -248.856 -1165 64 127 78 255 
-86.9983 -248.856 -1165 67 120 48 255 
-84.9751 -248.856 -1165 63 55 19 255 
-82.9519 -248.856 -1165 60 34 23 255 
-80.9287 -248.856 -1165 69 45 27 255 
-78.6345 -248.001 -1161 78 50 24 255 
-160.932 -252.602 -1173 170 164 171 255 
-158.353 -251.74 -1169 149 200 180 255 
-156.323 -251.74 -1169 129 183 128 255 
-154.292 -251.74 -1169 85 125 77 255 
-152.262 -251.74 -1169 41 123 87 255 
-150.232 -251.74 -1169 60 131 98 255 
-147.695 -250.879 -1165 80 94 59 255 
-145.672 -250.879 -1165 48 5 20 255 
-143.648 -250.879 -1165 16 11 23 255 
-141.625 -250.879 -1165 26 16 26 255 
-139.602 -250.879 -1165 37 17 25 255 
-137.579 -250.879 -1165 40 18 24 255 
-135.556 -250.879 -1165 43 18 22 255 
-133.532 -250.879 -1165 28 22 20 255 
-131.509 -250.879 -1165 14 21 19 255 
-129.486 -250.879 -1165 20 21 19 255 
-127.463 -250.879 -1165 26 18 25 255 
-125.439 -250.879 -1165 25 16 32 255 
-123.416 -250.879 -1165 24 16 26 255 
-121.393 -250.879 -1165 25 18 20 255 
-119.37 -250.879 -1165 26 16 16 255 
-117.347 -250.879 -1165 28 17 12 255 
-115.323 -250.879 -1165 31 16 14 255 
-112.911 -250.017 -1161 27 16 16 255 
-111.277 -250.879 -1165 24 15 17 255 
-109.254 -250.879 -1165 25 17 18 255 
-107.23 -250.879 -1165 27 12 13 255 
-105.207 -250.879 -1165 27 10 9 255 
-103.184 -250.879 -1165 27 9 17 255 
-101.161 -250.879 -1165 16 4 26 255 
-99.1376 -250.879 -1165 5 23 35 255 
-97.1144 -250.879 -1165 23 80 44 255 
-95.0912 -250.879 -1165 41 97 53 255 
-93.068 -250.879 -1165 49 115 63 255 
-91.0447 -250.879 -1165 57 121 72 255 
-89.3272 -251.74 -1169 60 137 81 255 
-87.297 -251.74 -1169 64 109 52 255 
-85.2669 -251.74 -1169 56 46 24 255 
-83.2367 -251.74 -1169 49 43 27 255 
-81.2065 -251.74 -1169 63 53 30 255 
-160.383 -253.77 -1169 180 168 181 255 
-158.353 -253.77 -1169 160 193 185 255 
-156.323 -253.77 -1169 141 204 131 255 
-154.292 -253.77 -1169 89 146 78 255 
-152.262 -253.77 -1169 38 115 87 255 
-150.232 -253.77 -1169 57 122 96 255 
-147.695 -252.902 -1165 77 120 57 255 
-145.672 -252.902 -1165 47 46 19 255 
-143.648 -252.902 -1165 18 13 27 255 
-141.625 -252.902 -1165 25 16 36 255 
-139.602 -252.902 -1165 33 16 28 255 
-137.579 -252.902 -1165 35 16 21 255 
-135.556 -252.902 -1165 38 14 17 255 
-133.532 -252.902 -1165 28 18 14 255 
-131.961 -253.77 -1169 19 19 17 255 
-129.486 -252.902 -1165 25 19 20 255 
-127.463 -252.902 -1165 31 16 27 255 
-125.439 -252.902 -1165 28 15 34 255 
-123.416 -252.902 -1165 25 15 26 255 
-121.393 -252.902 -1165 25 14 19 255 
-119.37 -252.902 -1165 26 11 17 255 
-116.944 -252.034 -1161 27 13 16 255 
-115.323 -252.902 -1165 29 16 17 255 
-112.911 -252.034 -1161 24 15 18 255 
-110.895 -252.034 -1161 20 14 17 255 
-109.254 -252.902 -1165 26 12 16 255 
-107.23 -252.902 -1165 32 10 10 255 
-105.207 -252.902 -1165 29 10 4 255 
-103.184 -252.902 -1165 26 13 12 255 
-101.508 -253.77 -1169 20 6 21 255 
-99.478 -253.77 -1169 15 3 30 255 
-97.4478 -253.77 -1169 28 57 39 255 
-95.0912 -252.902 -1165 42 89 47 255 
-93.068 -252.902 -1165 50 106 55 255 
-91.0447 -252.902 -1165 58 113 70 255 
-89.3272 -253.77 -1169 68 129 85 255 
-87.297 -253.77 -1169 78 135 57 255 
-85.2669 -253.77 -1169 70 72 30 255 
-83.2367 -253.77 -1169 62 43 32 255 
-162.413 -255.801 -1169 194 167 188 255 
-160.383 -255.801 -1169 190 177 189 255 
-157.811 -254.925 -1165 171 201 190 255 
-155.788 -254.925 -1165 153 187 137 255 
-153.764 -254.925 -1165 94 141 84 255 
-151.741 -254.925 -1165 36 122 85 255 
-149.718 -254.925 -1165 55 123 87 255 
-147.695 -254.925 -1165 74 100 55 255 
-145.672 -254.925 -1165 47 50 23 255 
-143.648 -254.925 -1165 20 27 28 255 
-141.625 -254.925 -1165 25 22 34 255 
-139.602 -254.925 -1165 30 17 27 255 
-137.579 -254.925 -1165 31 17 21 255 
-135.556 -254.925 -1165 33 18 15 255 
-133.532 -254.925 -1165 29 21 9 255 
-131.961 -255.801 -1169 25 20 13 255 
-129.486 -254.925 -1165 30 21 17 255 
-127.463 -254.925 -1165 36 17 22 255 
-125.439 -254.925 -1165 31 16 28 255 
-123.416 -254.925 -1165 26 15 23 255 
-121.393 -254.925 -1165 26 14 18 255 
-119.37 -254.925 -1165 26 11 16 255 
-116.944 -254.05 -1161 26 10 15 255 
-115.323 -254.925 -1165 27 12 17 255 
-112.911 -254.05 -1161 22 14 19 255 
-111.277 -254.925 -1165 17 12 17 255 
-109.254 -254.925 -1165 27 10 15 255 
-107.23 -254.925 -1165 38 9 11 255 
-105.207 -254.925 -1165 32 11 7 255 
-103.538 -255.801 -1169 26 9 13 255 
-101.508 -255.801 -1169 26 4 20 255 
-99.478 -255.801 -1169 26 16 31 255 
-97.4478 -255.801 -1169 35 56 42 255 
-95.4177 -255.801 -1169 44 85 48 255 
-93.068 -254.925 -1165 51 110 55 255 
-91.0447 -254.925 -1165 59 115 63 255 
-89.3272 -255.801 -1169 75 132 71 255 
-87.297 -255.801 -1169 92 117 58 255 
-85.2669 -255.801 -1169 84 66 46 255 
-83.2367 -255.801 -1169 76 52 42 255 
-162.413 -257.831 -1169 202 168 198 255 
-160.383 -257.831 -1169 202 173 197 255 
-157.811 -256.949 -1165 180 192 196 255 
-155.788 -256.949 -1165 159 205 143 255 
-154.292 -257.831 -1169 97 150 91 255 
-152.262 -257.831 -1169 36 112 85 255 
-149.718 -256.949 -1165 52 113 79 255 
-147.695 -256.949 -1165 68 111 53 255 
-145.672 -256.949 -1165 47 57 28 255 
-144.142 -257.831 -1169 27 25 30 255 
-141.625 -256.949 -1165 23 20 33 255 
-139.602 -256.949 -1165 20 17 27 255 
-137.579 -256.949 -1165 24 18 21 255 
-135.556 -256.949 -1165 29 20 12 255 
-133.991 -257.831 -1169 26 19 4 255 
-131.961 -257.831 -1169 24 19 9 255 
-129.93 -257.831 -1169 26 18 14 255 
-127.463 -256.949 -1165 28 19 18 255 
-125.87 -257.831 -1169 25 17 22 255 
-123.416 -256.949 -1165 23 17 19 255 
-121.393 -256.949 -1165 25 12 17 255 
-119.37 -256.949 -1165 28 9 16 255 
-116.944 -256.066 -1161 31 10 15 255 
-115.323 -256.949 -1165 34 9 18 255 
-112.911 -256.066 -1161 23 10 21 255 
-111.277 -256.949 -1165 13 10 17 255 
-109.254 -256.949 -1165 21 10 14 255 
-107.23 -256.949 -1165 29 9 12 255 
-105.207 -256.949 -1165 24 11 10 255 
-103.184 -256.949 -1165 20 12 14 255 
-101.508 -257.831 -1169 16 7 19 255 
-99.478 -257.831 -1169 13 4 32 255 
-97.4478 -257.831 -1169 25 36 45 255 
-95.4177 -257.831 -1169 37 85 50 255 
-93.068 -256.949 -1165 46 101 55 255 
-91.3573 -257.831 -1169 55 106 56 255 
-89.3272 -257.831 -1169 67 127 58 255 
-87.297 -257.831 -1169 79 138 60 255 
-85.2669 -257.831 -1169 77 87 63 255 
-83.2367 -257.831 -1169 76 43 52 255 
-159.834 -258.972 -1165 214 176 198 255 
-157.811 -258.972 -1165 189 189 199 255 
-155.788 -258.972 -1165 165 184 147 255 
-153.764 -258.972 -1165 101 144 95 255 
-152.262 -259.861 -1169 37 114 80 255 
-150.232 -259.861 -1169 49 108 66 255 
-147.695 -258.972 -1165 62 92 55 255 
-146.172 -259.861 -1169 48 42 44 255 
-144.142 -259.861 -1169 34 25 39 255 
-141.625 -258.972 -1165 22 18 35 255 
-139.602 -258.972 -1165 11 17 28 255 
-137.579 -258.972 -1165 18 21 21 255 
-135.556 -258.972 -1165 26 19 14 255 
-133.532 -258.972 -1165 24 18 7 255 
-131.961 -259.861 -1169 23 17 10 255 
-129.93 -259.861 -1169 22 16 13 255 
-127.463 -258.972 -1165 21 16 16 255 
-125.87 -259.861 -1169 21 16 19 255 
-123.416 -258.972 -1165 21 14 17 255 
-121.393 -258.972 -1165 26 10 16 255 
-119.37 -258.972 -1165 31 11 15 255 
-117.347 -258.972 -1165 36 12 14 255 
-115.323 -258.972 -1165 41 11 16 255 
-113.3 -258.972 -1165 25 11 18 255 
-111.277 -258.972 -1165 10 11 13 255 
-109.254 -258.972 -1165 15 14 9 255 
-107.23 -258.972 -1165 20 12 9 255 
-105.207 -258.972 -1165 17 13 10 255 
-103.538 -259.861 -1169 15 10 12 255 
-101.508 -259.861 -1169 8 9 14 255 
-99.478 -259.861 -1169 1 5 21 255 
-97.4478 -259.861 -1169 16 3 28 255 
-95.0912 -258.972 -1165 31 69 45 255 
-93.068 -258.972 -1165 41 106 62 255 
-91.3573 -259.861 -1169 52 112 61 255 
-89.3272 -259.861 -1169 59 133 60 255 
-87.297 -259.861 -1169 66 125 58 255 
-85.2669 -259.861 -1169 71 103 56 255 
-83.2367 -259.861 -1169 77 66 49 255 
-159.834 -260.995 -1165 215 177 201 255 
-157.811 -260.995 -1165 191 188 203 255 
-155.788 -260.995 -1165 168 201 151 255 
-154.292 -261.891 -1169 104 147 99 255 
-152.262 -261.891 -1169 40 95 76 255 
-150.232 -261.891 -1169 55 102 54 255 
-148.202 -261.891 -1169 70 109 57 255 
-146.172 -261.891 -1169 48 63 60 255 
-144.142 -261.891 -1169 27 15 49 255 
-141.625 -260.995 -1165 23 15 38 255 
-139.602 -260.995 -1165 19 14 29 255 
-137.579 -260.995 -1165 25 16 21 255 
-135.556 -260.995 -1165 31 21 15 255 
-133.532 -260.995 -1165 27 18 10 255 
-131.509 -260.995 -1165 24 18 11 255 
-129.486 -260.995 -1165 21 16 12 255 
-127.463 -260.995 -1165 18 14 14 255 
-125.439 -260.995 -1165 17 15 17 255 
-123.416 -260.995 -1165 16 15 16 255 
-121.393 -260.995 -1165 21 13 16 255 
-119.37 -260.995 -1165 26 14 14 255 
-117.347 -260.995 -1165 30 13 13 255 
-115.323 -260.995 -1165 34 13 14 255 
-113.3 -260.995 -1165 24 11 15 255 
-111.277 -260.995 -1165 15 12 10 255 
-109.254 -260.995 -1165 19 13 5 255 
-107.23 -260.995 -1165 23 15 7 255 
-105.207 -260.995 -1165 19 11 10 255 
-103.538 -261.891 -1169 16 7 10 255 
-101.508 -261.891 -1169 11 7 10 255 
-99.478 -261.891 -1169 7 4 11 255 
-97.4478 -261.891 -1169 19 24 12 255 
-95.4177 -261.891 -1169 32 84 40 255 
-93.3875 -261.891 -1169 40 101 69 255 
-91.0447 -260.995 -1165 48 104 65 255 
-89.0215 -260.995 -1165 55 119 62 255 
-87.297 -261.891 -1169 63 127 55 255 
-85.2669 -261.891 -1169 71 97 49 255 
-82.9519 -260.995 -1165 79 62 46 255 
-157.811 -263.018 -1165 193 186 204 255 
-155.788 -263.018 -1165 171 180 152 255 
-154.292 -263.921 -1169 107 149 101 255 
-152.262 -263.921 -1169 44 106 73 255 
-150.232 -263.921 -1169 61 96 45 255 
-148.202 -263.921 -1169 78 98 48 255 
-146.172 -263.921 -1169 49 86 52 255 
-144.142 -263.921 -1169 21 34 42 255 
-142.111 -263.921 -1169 24 14 32 255 
-139.602 -263.018 -1165 27 13 26 255 
-137.579 -263.018 -1165 32 10 21 255 
-135.556 -263.018 -1165 37 15 16 255 
-133.532 -263.018 -1165 31 17 11 255 
-131.509 -263.018 -1165 25 17 12 255 
-129.486 -263.018 -1165 20 17 13 255 
-127.463 -263.018 -1165 16 15 13 255 
-125.439 -263.018 -1165 13 17 13 255 
-123.416 -263.018 -1165 11 16 13 255 
-121.81 -263.921 -1169 16 16 13 255 
-119.37 -263.018 -1165 21 15 13 255 
-117.347 -263.018 -1165 24 16 14 255 
-115.719 -263.921 -1169 27 12 17 255 
-113.3 -263.018 -1165 23 12 21 255 
-111.277 -263.018 -1165 20 12 15 255 
-109.629 -263.921 -1169 23 14 9 255 
